-0.5457856342561763 -0.3196961339922012 0.18200823947736672
-2.065312351118444 -0.20007914066000648 0.7077663498130471
0.48125562686043455 -1.968651044805193 0.671511805642889
1.3253271994921834 0.41578777739212636 0.17262590394424782
-0.04782194750275175 -1.424517586404903 0.37425107490386417
0.9536719000273058 -0.10527817793809319 0.05195133591047777
1.3023195113789323 -1.2097367213663701 0.526504516093991
-0.4321266354995748 2.1283127721236177 0.5576120318805854
0.9504595602612199 0.8110714392471599 0.31332002298231043
-0.7696117538149863 -1.2170027181658587 0.19009876854087657
-0.2547706253904427 0.27623161978088695 0.177800003439188
-1.043441772136011 -1.0759678889042315 0.2122218299552189
-1.1480282470756886 0.43632062778480984 0.3064826715015876
-1.5893649315972713 0.8797397915296395 0.5464284516828033
1.5450035498523371 -0.6980684294418315 0.4867978483404273
-1.404520690022712 1.0301799770329074 0.5088885236436912
-0.275444624002496 -0.3789777816114412 -2.0582214314316645e-16
0.13669422912426035 -1.035983218690481 0.07134340118190648
1.248333675080485 1.9068383606352202 0.7620000094175339
-1.5876262491818103 -0.4798113359343523 0.46994559057354335
1.6792582221222774 -0.001802367621862069 0.47944876528563873
0.6335880963797271 0.12596120105201675 0.004724787221431089
-1.1076378400124873 1.3132209075782515 0.3019755838793723
-1.3945218341977383 -0.4821204320601808 0.20343343503618017
0.8075701218695885 -1.9623101774660978 0.5210892587703847
1.1937810854830724 1.5065040646068972 0.6047211026933015
-0.838222589662495 -1.5934875703105824 0.3400449094903123
-0.17040715958021743 0.7033328498122914 0.012171541825013584
1.0272780074538788 0.5810589189873685 0.29186514480963094
-0.2448164838596159 1.4846225376700437 0.40478702136655026
-1.7712704064944127 0.5021759799774197 0.5591920451012201
-1.7061377142529268 1.1416216777437946 0.4759650811339545
-0.2468647990926619 -2.200627087143196 0.5932517336694219
1.1312510912979183 1.9481599855172407 0.6318701296739611
-0.9580048667671279 -1.5573320876107841 0.5526604083055587
0.7739308102408803 1.3496134061784475 0.4255734166806077
-1.325570110674944 0.02904167552383782 0.3386251240047299
-1.8820930716759123 0.7755068925024857 0.6779723788645022
-1.4797410361040697 -0.35878889618519266 0.221133563971698
1.3314103400837316 1.3093555309400413 0.37264182827823983
-0.5867121582017089 -0.8720662345477427 0.25582899113731733
-1.4870198683694669 -1.6904272895289283 0.7620000094175339
-1.171287527774231 0.4717522970804985 0.3174832903842348
0.3266267551917881 1.7714545022743335 0.5382918138494238
1.1972674270382002 0.6570976741742773 0.16451218537494278
-0.8874055836702054 1.3990207688517358 0.27491068961052734
0.411255370423984 1.4919884244602266 0.42209336303662526
0.15563201465893273 1.1281624389829055 0.09535894353441203
0.20937056192698694 -0.2896675534554928 0.177800003439188
-1.2459833400387645 0.9782962429624088 0.4372569971687159
-1.451206430594478 -0.326655771271678 0.20789397199204612
1.46901172907739 -0.18858534173937802 0.3954555525200767
-0.6691185116901206 -1.2819062621524726 0.1922540621874537
0.3019634742480845 0.9012157397606385 0.05003977851352915
-1.384293038546973 -0.19686802386170293 0.1757317140494774
-0.8055799422867651 1.1484088093865252 0.1772862097101917
-0.8825010605288309 -0.6480527239387518 0.08362603195403641
0.4492182543648901 -0.996468778307716 0.266837136754112
0.6474128210273713 1.3167153070783235 0.38994422286306685
0.8873367595812116 1.2292402392890736 0.21866425148808113
0.3762147975351912 2.169673152992023 0.5829186167942964
0.5626199220638246 2.1714204758215567 0.762000009417534
0.8670100384739244 0.1393333488907171 0.2164363802052926
0.21291765393163395 0.6724182470495832 0.010410144207627552
1.3582466315254438 0.4015241802714345 0.18203828499687882
1.0597615851246869 0.9925088535598325 0.1945870287793975
-1.2071134982874816 0.37036988737964155 0.31751549027643233
-0.9221518248755635 -0.9733691077752258 0.3436346260016735
1.329656794909173 0.5767008717464197 0.3832163855695371
-0.6199682424371104 1.8319509099478495 0.6116714723611092
-1.4767679644640892 -1.4531430600517417 0.7056490135329374
-1.669608863146388 1.526509884131122 0.762000009417534
-0.9471978773994784 -0.49306002367197 0.07699661720084074
1.723898256921034 0.8093832957680442 0.5943557816343815
-1.2552903977772716 1.5842184635511254 0.6675831037311337
1.729166330096748 0.8760115805063646 0.40975076653105186
1.9780032522264688 -0.9118472037003744 0.5629104025976119
0.6258163211940958 -0.5425847630228879 0.027031449487460904
1.822445330098569 0.9921823400988514 0.489657181609247
0.5526917549841524 -0.29048049089960387 0.18135209540676558
-1.2310122949067621 -1.7906765510412856 0.558727002535047
1.840546691890882 0.9096601619638431 0.6907533436656292
-1.289557580854401 -1.3985395678969261 0.39079164576884806
1.5831730257394976 -1.1328604821919088 0.4144509900557406
-2.173423449642917 -0.6803611924596977 0.7620000094175339
1.1912618573368472 -1.1473592099165428 0.4678739430730865
0.6937915400801278 0.9036625636546908 0.27980460931945705
-1.7914233672809599 -0.784015979889537 0.4191517625002418
0.17371532221015504 -1.2300967158957392 0.12499131175418526
0.5060124896266418 -1.253134750225398 0.3474470010601889
0.10030657336052742 -0.6544061968633585 0.006259169748231079
0.2601808633347339 1.4907584335326889 0.40814022849003984
2.1339048727220558 -0.7170577697929791 0.6301999612516489
1.4260830851341788 -0.9754119995137123 0.30634632696833053
-0.8014181791490331 1.9541243256437189 0.741169815094293
1.5364559893565168 -1.2760733993631552 0.6513146219884243
0.5832580716355432 -1.3721000372885719 0.39936556470281154
1.4196552332462038 -1.305530424131141 0.608432303316868
1.1651245598340179 1.3848314599324605 0.5426807999050592
1.6841616473553365 0.241327198549169 0.4895827897958601
-1.9838961632743688 0.5936339889143691 0.7046255916976364
-0.6390364263176017 1.8988447750467277 0.6556279480716156
-0.025003027139632043 0.6912982421862701 0.18761506558011093
1.282263244678129 -1.6157539625121435 0.4821665162962497
-0.9262444291225809 1.723914310336623 0.42018686070647293
1.5545092866125985 0.09687641495243271 0.23446696038721793
1.450363477214147 0.17459154295985263 0.38747767834433966
-0.08129833080476025 1.1665764866407555 0.2885848751717516
-1.3162842689003207 -1.8842366590160986 0.712017401543408
-0.3045171004841174 -1.9604921373605717 0.4351994681510599
-0.6345776991531004 -0.946943197547287 0.09565630316978796
-1.5698890606696303 -0.880639488799917 0.5376954219562295
1.9051566162391356 1.1225930055141875 0.7620000094175339
-0.6769557076923074 -0.1674240703560841 0.18822183458025504
-0.9230666303294399 0.8560919911927667 0.3162982912129028
1.7254383396006485 -0.5032286793302151 0.5364502232836298
-1.3684869714313481 -1.650523154106762 0.7620000094175339
-0.4921222367489604 0.802346554954815 0.22960781739308586
-2.002785657738693 0.7024748865086688 0.7527606566752147
-1.7307263197250065 -0.21233690442906644 0.3134613875890619
0.5283909252179548 -1.7345849871322527 0.34605586208372974
-0.20574930016390713 0.1049845532095655 -1.557548553800244e-16
0.5439464045736959 -2.009865278461236 0.4946686172558573
-0.8843600119642012 0.34644331432337294 0.23147478002224262
-0.5145193645494697 2.0456317735552183 0.51265237056204
-1.1570027293669793 1.7473411320531458 0.7256370903380034
-0.32046265496220466 1.32747752451691 0.35248165481792293
1.6331608179507728 -0.39386826546231124 0.2852131349166918
1.5253544936429322 -1.083755649881495 0.5757163791974087
-1.144990493819435 1.916196600679707 0.610664097352014
-1.7526898484961255 -0.6137526745256093 0.3674782266550347
-0.27987410390255324 -1.9987950280164244 0.6657717945811348
-1.0565383281111649 1.4954930455640512 0.5539828478539112
0.1460981527851098 -0.2853782657345322 0.177800003439188
-0.352831979827265 -0.8270930539585052 0.22070436619506967
-1.682531306802372 -1.5668062761125237 0.7253490151348129
0.59167505889741 1.6937086955945326 0.5348078982240446
0.3451714359240318 -0.9191196811511554 0.05669023078382251
0.9557662811197052 -0.15033866739241625 0.053661319309609976
-0.9169599467816547 1.6701696001263056 0.5949506719472362
1.9612167700442993 -1.1808696593320909 0.6842129704032693
-1.5175813246397327 -1.2072596343425592 0.410171320277931
2.0242080838906835 0.05090785147941792 0.45912937919232544
-0.981158130282344 1.5458058849213634 0.5539224714984737
2.1723427561840873 0.5552342349693928 0.6205686040508043
0.10496373044411661 -2.0494630255884934 0.47577898169865934
-0.5625549287338587 -0.5781057000332323 0.2034813236621434
-0.0672819289323158 -0.3124072392710847 -1.7442198034577228e-16
1.3778080838986693 -1.7686478034748752 0.7620000094175339
-0.8460133142877633 -0.8796392375343564 0.11821069947700485
-1.4880527315159762 0.2574928957000199 0.4070040247891922
-0.8349930056411315 -0.13729858825974536 0.21046472904515517
-0.5992456712981716 0.944298165893656 0.08957100854193989
1.6704681745926255 0.2648874050957531 0.29030871514100065
-1.2416110375934795 1.8865372188486809 0.7620000094175339
0.774330170159242 1.3805595711865306 0.436722402130692
0.213364955735729 -0.6918483825258924 0.01219239483166492
-0.3293198551067188 1.5831904110916928 0.25865530762688504
0.2789183921938814 0.3244285035009057 0.177800003439188
-1.0611727785437244 -0.9507424237315596 0.3740494280261367
1.1407982844727662 -1.4449352014287165 0.5592627122328138
-0.7191544181800208 0.29041223800878957 0.19858343207318968
-1.0588455295076433 -0.7484326853301003 0.3286167099173143
-1.3282808078951498 0.6319031770518899 0.20169233525197128
-0.3947757051635129 -1.12072649038217 0.10912693654147004
0.17877536117957685 -0.42455041273486105 0.177800003439188
0.8804340744522197 0.76047593887399 0.10222949209233079
-1.7354883590052896 -1.1283387700424652 0.7040764582022628
-1.856020805762888 -0.6634108013403797 0.4280897959774311
-1.527296630754713 -0.03256361539762603 0.2230716520910063
-0.33280655645213764 -2.0016850809237847 0.4615784280826407
-0.3436112662493114 -0.024908585135041975 -1.796876533804806e-16
1.488670166956364 1.48003661628539 0.7288604114855651
0.5728569245756542 0.4832176463387484 0.015659789035110994
1.8882094749146663 -1.2550588695406932 0.7620000094175339
-1.7063779007822673 1.3799656132230587 0.7620000094175339
-0.3701802324667097 -0.957116315859255 0.06671531916309566
-1.6114123596975582 -0.1723684698819677 0.4531499700871212
-0.1110222900269371 -2.167757468645079 0.5570093523950154
-1.3404528202058437 -1.4310801129753206 0.42211614627850813
1.2542545897075303 1.561268935356035 0.4458233256665457
1.580171242194476 -0.5541000848180194 0.4772698979254128
1.4283291601172685 -0.8126428670464085 0.46307707058067193
0.9739978931652775 0.11516176263528982 0.23840973247154965
-0.1482098172938257 1.8713144284918595 0.5790321311103057
1.683287277841743 0.41088093172621976 0.5045416684088405
-0.8784257128946288 1.342985070254916 0.44612049997420755
-1.6208178566544753 -1.5315769870017264 0.7620000094175339
-0.4613480045034163 -2.036914707332705 0.7196840222676526
-1.530924242286941 -0.7313432707696043 0.2925935979702866
-0.5627464481969984 -1.6461487235425563 0.31166061845528886
1.9881021397243481 1.0945797180697479 0.6523826262105272
-0.5695408807485581 1.1380099477757213 0.3207033873082732
1.4326609318867065 -1.51922684230342 0.719298746758372
-1.0118141387816662 0.23675041934719487 0.06985713810555357
-0.14902805357570925 -1.7812366988891493 0.5315125254276797
-0.5986010479527445 -1.3331401830049172 0.19808773879875421
0.05636301549302139 0.14815935038494193 -1.404789286321206e-16
1.8692112760241342 0.34199386449217406 0.5919836428691523
-0.731900928476312 1.6434193495086082 0.3394207855540461
-1.7187691411348738 -0.308298565705836 0.5109234436197614
0.42251271957812836 -0.45638454825856295 0.003315380945684433
0.21028635947169777 -1.953849538670529 0.4246435973724617
0.397020372143504 1.8309280654241036 0.3758965624327832
1.7756172146672922 -0.7392547133869122 0.6052734896464639
1.8838577833674792 -0.9141418175039777 0.7239704111680045
-0.4676266242339746 0.7492738765665217 0.21748974714570563
-0.12778991992053923 2.264551605832354 0.7620000094175338
-0.4471692805157728 0.6010609876275737 0.015621492300633378
0.3312947960878737 0.8057450064986642 0.21506450238552877
-0.6432492140635506 -1.532365257876821 0.27722366925280967
-0.6396351682911049 2.102756213312112 0.5790815549494288
0.807259543951251 0.8761776047307455 0.11003070131935311
-0.7535294510867161 -0.27882074457924905 0.20300308881128518
-0.19402520750846808 0.8347706950976981 0.21241223887448746
-1.0971328770771949 -0.9740668192654562 0.3899984472236631
2.291686158125324 -0.06223404654961513 0.6924240828306559
-1.2265767119993902 -0.07299833445058343 0.30666373626326904
-1.8406701637018537 -1.0701609576820383 0.7615003183748339
-0.735834754115007 -0.47500516948963184 0.21597330337502302
2.1305524215196865 -0.8544514557955419 0.7008090156722968
-2.0762163120022343 0.5417490206874942 0.7620000094175339
0.5355274067855178 1.7710826983179766 0.5642112276606626
0.2745121297916976 -1.7583040046980218 0.5275813064824668
0.13420987079063 -0.7055753432473413 0.19059757834524907
0.023427034601217738 -1.2859676487836746 0.13864065948750898
-0.2932367135558488 -0.16243622638040772 -1.7771834420080335e-16
-1.3358151056921557 1.1853207548776061 0.5307069538471256
2.151903043607404 -0.151088096746505 0.5471113154359829
2.0320711539427885 0.2690966929232928 0.6884157933207327
-1.2392580197483551 -0.40650658666286316 0.3312714635846842
-0.7072518278166441 -0.11462661639117036 0.01148460155101791
0.7119240769307849 -1.1020288963916363 0.3339129089138395
-2.1047825883865183 -0.5040158203140735 0.5521724870552831
2.1341236408592597 -0.0677684499226434 0.5307576855795284
-0.8197489502519242 -0.28044846961402997 0.21406189097211928
0.4477796305942503 1.6026766148293636 0.27823414833344384
0.8179039478347456 0.387661869809952 0.040539354865382085
-1.1789150383710094 -1.7615895320391264 0.7496914683893373
-1.5015028822855856 -0.570941233541427 0.2542956405591495
-1.8478110390520408 -0.361099163599704 0.38072862088498605
1.212961356883467 -0.8476123871168488 0.20504944307846454
-0.3333313468278928 -0.13379349452924705 0.17780000343918798
0.8418189395273546 -0.415961054565325 0.04756912458639115
-1.125684567765604 -1.5015481144711573 0.3776185600632673
0.29486882084138305 2.003120952998634 0.670202712244684
0.020408440244472283 1.001333526770635 0.24350476900752105
-1.3251521904451202 1.117196005042461 0.3088497145933285
-1.0211394771319298 -1.9970079047145677 0.6210384477569955
-0.27117218713188673 -0.5099870252803782 0.001042457439812238
0.26751167153354305 -2.2069034473125804 0.7620000094175339
-0.8899658364625087 0.6021370403488377 0.07859464987368349
1.504199128756314 0.23594854252510256 0.22116544946148348
0.8288073353166079 -0.8536120010179205 0.10962676323151511
-0.8606562414561553 0.35460339389336293 0.045877778962493135
1.6393775972182745 1.1935630836426128 0.672240148944465
-1.0681635306698942 -0.5745723058664719 0.1160623686631221
-0.5930255699535513 0.6314181297795889 0.03368036806126565
0.43486140960964953 -0.3240431218656645 0.17782668649600306
-2.0588838088285373 -0.364123073593206 0.5003473348122884
1.05411889763565 -0.06883095812210122 0.07416070049766627
0.06712864824678362 -0.6261939353584957 0.003719597040542529
-1.5519135136860558 -0.9230690312949728 0.342568436157338
-1.970007039551203 -0.7757315040403958 0.7467747921168919
0.6265343379343896 0.2180860049104906 0.1846378699419307
0.04555258964502347 -1.4128072061210228 0.181043939544208
-1.4737791286463706 1.0607423455712495 0.5459722621109255
-0.79433024835618 -0.27735880319858797 0.20956685287280216
-0.1410111003352183 1.4617647084304772 0.20082673404737456
-1.3066880110176138 1.336089518707425 0.5742973883436484
-1.4288359876140384 -0.3505968769461314 0.201812480883384
-0.12441008660416163 0.4406651547533059 0.177800003439188
0.17743231207098675 0.5575952708669548 0.0014303143328487482
-1.1117473572529748 1.6533374576623359 0.44005893706113974
1.0861163695654004 -1.345035343399592 0.30688829928555095
0.13563855250497966 0.5172113185063854 0.00020133450973425758
-1.2577370268168746 -1.2103007253601692 0.5105735021342158
0.19007691461744552 0.034452717728211 0.177800003439188
-1.527867020602127 -1.7171418802711014 0.7140804917301342
0.9657431310663468 -1.6429200639284767 0.5952092991803317
-0.08959792758651337 1.8357198240933221 0.3580538727043669
-0.9676843167406102 0.9862941339478555 0.1701317804555884
1.5275878237380112 -1.2931357089621551 0.654206550595847
-1.819672033277543 0.2174012089131952 0.554875898908131
1.006119138689738 -0.9428113524143967 0.16913077233256246
-0.6723973842302033 -1.5680917270657329 0.2968675223262915
0.6507288240443193 0.5532052794194671 0.03157628487800193
-0.6752960247450003 0.6628204682945917 0.04910189546155293
1.154966395563541 -0.8970492745664895 0.3882038263171933
0.7185314858360998 -1.5667993847568114 0.5002276386941752
-0.003909365326335085 -1.91102620596932 0.5981693697550893
-0.25910532365894223 -0.7650715319609569 0.20367750518117372
-0.2774636220836201 -1.8443068829223823 0.5721688420284876
-0.11472540082562292 -1.5307709778254814 0.225787866542525
-1.5441725885436597 0.5797799413344278 0.4658523639852081
0.40751401803565035 0.898843299574621 0.23994566337774542
0.2460488835671712 -0.7847706635416007 0.20617861166419793
-1.1823795059296107 1.9669690458125983 0.6989632551001163
-0.1657849406148238 1.4859582128042392 0.21074152184633382
-0.4634329465768721 -0.2960819532157948 0.1779718680518027
-0.27292705762301944 2.114539086309539 0.5284581329185851
-0.8853918741492692 -1.0931220924107108 0.1787331839993041
2.041085004066969 -1.0336244655311968 0.7587538335786317
0.9479829783831297 1.1262519192516975 0.20209618614919075
0.4705625064218672 1.1408346436978885 0.3083916350720462
-1.5872570247788338 -0.6273889083550108 0.49195387597719525
1.2610432010936896 -1.1712861634582685 0.49897585551265805
-1.8172363045340685 0.08572192201768944 0.34893864795612517
-0.9291166031563116 -1.5618532613693301 0.546686499059454
0.7933743342631538 0.5972847660159148 0.24142642661578592
-0.6841835379246219 0.7356555251108314 0.24426212460678093
-0.7631045452730189 -1.1512411373808566 0.3580132475622824
1.1531212523577379 -1.966452993520809 0.6670176704292891
0.44751022616822467 0.06414289341746095 0.177800003439188
-0.048188020032844524 -1.8743319577697402 0.3765648924116541
-1.4618625945767727 0.8269991385431916 0.28507440940232187
-0.8277906637380625 1.9634636092913857 0.5274936383009512
-1.5281717062719786 1.4316380278637817 0.5026457460964419
0.003911505134536566 1.2437586455783882 0.125450257016611
0.7658881495333125 -0.4028642947915638 0.03355713711094708
-0.37239628518143986 0.299526170486818 0.177800003439188
1.0849890133301585 1.8085849172513444 0.5126893524088184
-0.5450631988556843 0.10413727421220625 0.17812174601186803
0.7087026393020943 1.9260432029893981 0.47579960607996047
-1.6078360905072482 -1.3182458108062947 0.4924604091860487
-2.078925941103508 -0.28592732088767553 0.7282757043808088
-1.6720540059701916 -1.4982759926630207 0.7620000094175339
-0.777479276115725 0.7476186000228507 0.2630492210912304
1.3201064879856041 -0.4364366111676443 0.17299289896111775
-1.3890082079115682 0.5401577104191124 0.3990979616140442
-1.089010912417663 1.310608407431046 0.4908417606839741
-1.856271836065695 0.6539201439612827 0.42643972804246616
1.8503032034572775 -0.9620716907979616 0.7170379382485736
1.4424179863318567 1.1617218382881354 0.5650598066281988
0.23754501768522818 -1.197780274986274 0.30424192187622356
1.0385459516874997 -1.6559975798328082 0.62416221482175
-0.15310756374562653 2.155626510849879 0.7620000094175339
-0.5720122003595685 -0.46415944456381425 0.013881701613748017
-1.6847751189089926 -0.543520781765088 0.32558957329532034
-0.2396004246940186 0.7253776305014914 0.017647729694298786
-1.45813873179943 -0.6193750945430059 0.24532621233169433
0.4320018732197639 0.7579370206618017 0.2152929594271472
1.7170032692949593 -0.46284868688251113 0.5267474153221458
1.3698710217477486 0.15748422592053193 0.16915297809055208
2.2109946496036597 -0.06664381131172185 0.5913239211227719
0.28353664220617303 -0.0614441672130165 -1.682191031985081e-16
-0.09709792336157182 -0.16412954658497445 0.177800003439188
0.1287971191488904 1.0924610952691494 0.268775497139212
0.4801614543310715 -0.09719481205380368 -2.10335634972786e-16
-0.35568548963299185 -1.4902387789517073 0.22473390834169082
0.13714732381979924 -0.3814870610011972 0.17780000343918798
2.122901088622094 0.6134848483165506 0.5892921764698479
-1.6817610869452864 0.9702234230419831 0.6160838467154712
1.8706975176327352 -0.5009672506873166 0.4087258367409216
-1.624838452672078 1.5781407260927438 0.762000009417534
-1.2989771085589308 -0.1587294726778663 0.3327831787155242
-2.0547271824125795 -0.06157927833091464 0.47790483636330194
-1.210322485985415 0.5700032424805099 0.15499874448948875
0.1835592319084506 -2.093212159544164 0.73087152329595
1.44587176193998 1.1025058906340848 0.5472955460345384
-1.759978914679775 -1.2326545367661326 0.7620000094175339
1.7525797137656158 -0.6859601964666084 0.5817124428692464
0.2917821798629634 -0.3690819945591675 0.17780000343918803
-0.4266254033468746 1.407219574124901 0.2014305824953387
0.7147644129865947 0.4724666583904418 0.21235132812599045
0.751697435670978 2.167375385967504 0.6957437170145535
1.8383934031882099 -0.8162489194954528 0.4508244014347445
-0.4877336193650038 -0.5985621073275644 0.19804547864775826
2.004000199023051 -0.44228663837775906 0.6899988507288279
0.26593296476436495 1.3639820669803373 0.36109473974241757
1.7275595612556591 0.18376026969020343 0.31063250007038673
0.9480261516530606 1.4203581555081313 0.29753822971077765
1.2213494328487342 -0.2202520006042724 0.12453295226157654
0.7926146389813873 1.3599849500277437 0.24114177733210382
-0.6360522733433195 0.6371777022371584 0.03969243011623678
-1.386029583846717 -1.2889561014161526 0.58751436086335
-0.5455186391165069 1.5877780042472232 0.4792217453141886
-0.2574453414803736 -1.7687383575076452 0.33385470717575755
-0.5814596637301859 -1.36270929581267 0.3956853588699223
0.3437438966718018 -1.2645718144251155 0.33333379441268907
-0.7580491014003449 0.797270709644998 0.08494063988965789
-0.2191180469798059 -0.5999963080988495 0.18253583503917312
-0.029720186602904396 1.1253635770363493 0.2760344409296209
-0.012141125996497817 -0.2222928391182177 -1.5399115069709383e-16
-0.8870277586935151 -0.11268218278657226 0.21968895804086438
-0.6024335703853312 1.7268231762005986 0.5527908737399411
-0.21433678266521997 1.1920346246001599 0.3011766805750461
-1.7046958854440988 -1.124071666099217 0.4694493783908915
-1.0502386931521994 0.13999320027594891 0.07489865634523382
0.28213955710105143 0.350595576064563 0.177800003439188
-0.6080424898615197 -0.5627745339735529 0.20726222048969573
1.3129563846454684 -0.7565802443634679 0.21844103391907793
0.8523366310543279 -0.6201478518560387 0.2566019445882033
-0.5333955574419178 0.15869871600729837 0.17817142070059744
1.461425574456976 0.47715677643352283 0.22661087625779253
1.2057828392058176 -1.7170230329455836 0.5050979299569682
1.513681130678256 -1.51917651293607 0.7620000094175339
-1.263746969141288 0.044230513144105234 0.31810356411338697
2.0410785426548093 -0.8017248922940015 0.575188234069645
-1.406201992873402 -1.8068264597304153 0.7570791054268361
0.04225337298036643 0.3759818848277764 0.177800003439188
1.0905931829468574 -0.9240415141144893 0.18655330653995425
-0.8261812025968382 -1.1726461433873334 0.3776545494093867
1.1472189764037102 -1.020078082112397 0.41695047343861114
-0.5295299122741525 0.406139774433362 0.00677346320347121
-0.4082589597657097 -0.9306309423394249 0.06425630493272794
0.17104209868590875 -2.1124463041721637 0.519520361523661
0.36637594475685464 -1.9423134266978348 0.6379408060651184
0.693218528230155 -1.622545941200354 0.3228869631935913
0.14014099868445612 -2.111951522434436 0.5174420823160165
0.00237553977796819 -0.029804998193791288 -1.1336465413261907e-16
0.9068723305993334 -0.4925940041442392 0.0681046662621926
0.5723088244730056 -1.9895845548657278 0.4868269894056135
-2.248074633585654 -0.45057509969081694 0.7508495939735432
-0.21917121729251693 0.27474341193063345 0.177800003439188
-0.64194253340017 -1.868926924901956 0.6376779124039147
-0.24565733850081561 1.0698786799214006 0.08437202278474795
0.640294656659362 -0.6549205789772841 0.04271028930361158
-1.1818336987203342 -1.1293520274982753 0.2659742367964364
-0.4707982386916201 0.08003906418681254 -2.0773017254854709e-16
1.0958267527594259 1.8724099162034902 0.7620000094175339
-0.7533240976034807 -1.6752338015738033 0.5570427121285564
-1.6304349261529347 1.5339149416709894 0.7620000094175339
-1.5042747762384217 1.4911638038781887 0.5185886170449309
-1.203992373926786 -0.913176905770994 0.21681651060149715
-1.2155909010175394 0.37256616243178214 0.32031207402993234
0.027624526891616586 -1.3203835988588761 0.14939571642885321
-0.18363626297473318 1.0417630804424274 0.07451560383139941
-0.7682721105149998 -0.8037006598754437 0.27206806735739564
-1.1151302953410052 1.4061295463585548 0.33728875136316644
-1.0900412716571075 0.3337435266312874 0.09567834684697515
0.32444372664693655 0.44074788387726893 0.17789511106369466
0.33399684637392374 0.7422046699157024 0.02449535497236525
0.033352214158822134 -1.329163846528473 0.3398364139112924
-1.0126173529362403 1.693128552908011 0.42907732291789125
1.4876988979513315 -1.2550428082733607 0.41425313581505874
-2.113466463836214 0.9059287994625155 0.720786589078486
-0.25362861352529087 1.5140368882167552 0.22581344452355412
1.4990895286974217 1.6598539182127068 0.6148803176599573
-1.841720796400001 -0.30593253554429384 0.3726042118434458
-1.705418252228435 0.2880827080918727 0.3072110078798018
0.6967985660352816 -1.6117688105967019 0.5155940369527431
-1.3012495457774653 -1.7273436550075427 0.7620000094175339
1.1846225099271004 -0.9588891064318874 0.2216085740947341
-2.204066064471118 0.6527013192244893 0.7149475301766006
-1.2148797893292094 -0.31282885703144775 0.12880768402520945
-0.1806523246612996 0.7706921097381882 0.2011262823194216
1.005117728948877 -1.0594001651407092 0.38740384245689197
-1.4700409403108217 -0.2153040763149896 0.3972376284111213
0.8806067764298459 -0.025087195173762455 0.036297297222360386
-2.1227683512719526 0.1325411452813036 0.7585563444675134
-1.2342471985061052 1.3097755690595039 0.5375710970896642
1.6950193463770136 0.8699657546377926 0.5949150848684324
0.9382585731521387 1.6941891943073122 0.6130423245513806
1.5951025304461601 0.01835347528731587 0.2498421447229879
0.5442302432944877 -1.0278797686292218 0.10211317234948525
-1.3451248352999166 -1.381572852403683 0.608052207972669
0.3350374099242162 -2.1434562538386084 0.5559352282587048
-1.3914084174088446 -1.7822533008548158 0.6411141127850015
2.02513623617512 0.635881939069004 0.5217299381973954
0.6177827864068045 0.7851137469975553 0.060322225617900224
-1.620955974569982 0.8639467799769054 0.5570640441731386
-0.15985199675105333 1.7325226232476392 0.5079343359124532
1.7063766585557407 -1.193075964484994 0.7141702796193652
-0.6547666239136889 1.2002767115255772 0.1651452254905239
-2.000387438823931 0.6086238228452202 0.5005797846047684
-0.1740879972995983 -1.0154628777530073 0.06770327849336344
1.8360358369146625 -1.3834313407244239 0.7155428456563366
-0.11835312443196844 0.956688158885052 0.05289283054170823
2.2375695212410123 0.17799510940163646 0.7620000094175339
1.6569222850910472 -1.4588393844843202 0.587449842734281
-0.11481613379849097 -0.2502599917790186 -1.6509419483379627e-16
1.63164561169949 -1.1006640300952384 0.6323695114926244
0.6087200542354771 -2.122264591791306 0.7620000094175339
-0.20686711826469112 0.008957514209274034 -1.5070300302001567e-16
-1.9605546188639067 0.11058094231068202 0.6297237554087645
-1.0506417688474858 0.5569122059719969 0.10942817797712581
-0.896896795722627 0.5731689768476521 0.2592775705992462
-0.5302352448553989 -1.853546969999666 0.4041385984205774
1.2268174689057607 -0.63738592305505 0.17040116210258374
2.2144746798344257 -0.4186400895423956 0.6329927369696455
0.5783893293513996 -1.8522632965684211 0.6156185108657775
0.65003755528132 0.34951595220859694 0.19325186521214774
-0.3423232645251407 1.5050138295041815 0.4205015208587275
1.1495075840860325 -1.594513747635638 0.6310660348727168
-0.3582192907071028 -0.006582749916292399 -1.8258967730749618e-16
1.0082149947895032 1.8829610736295712 0.5312685426681711
1.7086442304634404 0.23025654976518595 0.5004065729778955
-0.07060581995575585 0.35725129392510124 0.177800003439188
-0.621712236372232 2.033188800499123 0.757051448815384
-0.5688425604339212 -2.215374254753966 0.6796697810760223
0.9483351789856966 -0.04112788392079174 0.049737751262033475
-1.4197588156013663 1.607703165222802 0.7620000094175339
0.7645518395001838 -0.7223874850661836 0.25604917496172336
-0.23148965787769793 -1.6841340580034099 0.2941307636035326
2.149761095698208 0.6162598912418181 0.7620000094175339
0.031123026992072242 1.980674888948285 0.4335051259347108
-1.4043959011026126 -0.4599389083842865 0.39419356143927387
0.009867496028135261 2.069044899164525 0.486115584572687
-1.335619235506408 1.5742971933046201 0.48308947001625385
1.3046566266347188 -1.2250034147114963 0.3349559142100564
0.062267771235034394 1.7726841905908461 0.32732959081484425
0.4481176867628177 -0.9383835545941964 0.2529006649167661
-0.4945676094179925 1.7922828649817477 0.36863340490866314
1.7577108200582976 -0.5118868123894489 0.5538895020998387
-1.2008176334324743 1.1144870044421036 0.26749857333164656
0.8205129899105318 0.5146106441828348 0.053870693470770836
1.1804893449083718 0.2987859836066911 0.11745328483480715
0.2558597316211284 2.057923896708645 0.4889886583568345
-0.47741364178590084 -1.1730767653243575 0.1324589254912515
-0.8319291041500764 -0.10088138202507896 0.20899078853995057
1.0239741056046856 0.5458586103400241 0.28584533086056046
0.36845878439023866 -1.7065206376977833 0.3143457364084221
1.5014015435598784 1.1161403688557328 0.5752859331531323
1.1191294902537883 -1.928891474605795 0.6081850967569562
-0.4357003633998349 -1.3476012950290892 0.18202267039186182
1.4691515383702662 -0.7887149004595727 0.279669880348944
2.275385590127182 0.29700164989185385 0.6974054559559919
0.05425860097718587 0.5188449108008533 0.17781016260491792
-0.17130100847493765 0.8557265629721756 0.21533197762399886
0.5935287096442936 1.955749617680569 0.4704313772539667
0.8262343956542286 -0.11921399330047593 0.028162776628794968
-1.9819395212369837 1.0177292816142736 0.6066491792407768
1.7680529272710164 -0.9835965775417581 0.4579887891244784
-0.6636477672328871 1.2018007610974961 0.16707433689416956
-0.6271116972466219 2.2094149605284104 0.7051634250623962
0.4731475103224985 1.7689604749389265 0.3547629829316913
1.4103474343621918 -0.2331784566371683 0.3756917011021914
-0.13642357881299635 -1.983410383337958 0.6454102015387453
2.219956281323407 -0.25110236850552203 0.7620000094175339
-2.081906737466661 -0.8973181871506872 0.6491178335177887
-0.1974892869018064 0.3302931162782349 -1.8818556417576284e-16
-0.5800558294188366 -1.9192469916146675 0.6563514172498701
-0.785351734766412 -2.0909288705212665 0.6119751056658618
1.3834976127063934 -1.6511397031927724 0.7620000094175339
-0.8838364400164105 -0.27746986702130383 0.22629898090219347
-1.4242785244232876 -1.0857284856081308 0.5331616613259675
0.3775271948320008 -1.340585657159721 0.36210011036295536
-0.22325575267198244 1.8658738688197745 0.3787952684054531
0.8238069802552825 0.072497845815247 0.02678280552741746
-2.1335989433543445 -0.6537375393512277 0.6100423709764499
-0.6953453195151305 -1.7268174842309947 0.36966043167806184
0.7293448212709525 1.2158196287422303 0.18254547722323392
-0.10932838143419067 0.7301723653825121 0.014126743459747935
-0.18150553232255145 -0.8215376210784977 0.20958660824190012
-1.652891183094816 0.18518163356873868 0.27786929613273287
-0.16743054573919167 0.883954758252804 0.03958692867435855
-1.6418815551664065 1.4371567310386313 0.5660640959643217
-0.510734287261847 0.5890848054861648 0.019795668524407575
-1.6381676312103919 -0.36282411144882953 0.2842826847546816
-1.2890742739072538 1.7811293158723944 0.5800715519682536
1.1634424655637365 0.36448327586947626 0.3035580158541036
-0.7706212947587948 2.1028198299980563 0.7620000094175339
-0.33801651501456464 1.4579654088827372 0.21140081389851556
-2.190038323168521 -0.4648438877985599 0.6170293775328669
0.14074945730503757 2.1019423663078207 0.7362854801009369
-1.1654269663530061 -1.7091785311899925 0.48587670151189877
0.44083744475953324 0.5084312498686981 0.18553676268702202
2.29475694942437 0.09042261396129353 0.703525234301813
-0.053132515622426796 -1.1009579300757824 0.08548806426290868
1.754044004358284 -0.011658211201558894 0.3179783334598152
1.8620216858361571 0.8278137877568683 0.6795939549858144
1.375390562030907 -1.3710823260554483 0.6164039039386281
1.1964643601070348 -1.6357281500605516 0.46018179253616126
0.011647629778647133 -2.2714953921236916 0.6556727003216869
-0.33402616120481177 -1.5384509419672632 0.24127169009901006
-1.2167968068919848 -1.0614002920512986 0.4505403792349844
2.0661913417795885 -0.0269379166230831 0.7011941376482835
1.6125623566302882 0.16641740077451178 0.4533999849871463
-1.6462979097007888 0.6458443316690053 0.5218305652525611
1.6251227685114604 -0.5265965455693064 0.29770713150791667
-0.3268818734283275 -1.5413334771948057 0.24176077662610224
-2.0630740278558664 0.6334579885109144 0.5478025004678923
-0.06670611894606776 -2.003825199330301 0.4470290074407584
1.626588921117875 1.114663128964973 0.4284593130588126
-2.1406400837735564 0.7184980880592363 0.63780783171769
1.271187059281767 1.1315771054905985 0.29479764723397706
0.792773430185131 -0.8576862635291569 0.2880955451971908
-0.8585379520420529 -0.5955538240423808 0.07131886864815633
-1.3575249509450427 0.2708885712519989 0.17099629478339234
0.014229279893432662 -1.1070524400939488 0.0866771259010328
-1.9211574278830077 -0.3848058525398698 0.6270514192827409
-1.3363509935930895 -1.4258799095786567 0.4184223027173703
1.8529770964595254 -1.0713815037787104 0.5346838426644611
-1.1807004577954108 -1.0455691366757405 0.24236713393863762
-2.1561114298508293 -0.07669302694293004 0.5471839131794425
1.3584733639857525 -1.2892946207510205 0.5766764544380121
0.23913122854168445 2.284881724814999 0.7393403680353754
0.1130670975648497 -0.13655044690618018 -1.444338915771943e-16
-1.318680194812651 -1.8373063404568524 0.7620000094175339
1.2857245983229806 1.294354736937373 0.550468601829086
-0.9458504629654646 0.15052362040972006 0.05158972883480168
1.5028178244641952 0.25868152168053626 0.22200987720396886
-1.67285595733959 -1.1363808098768802 0.4573954526090132
-0.9888047278452977 0.4140060887577101 0.2613302271280609
-2.2179398241822117 -0.018155946250922865 0.5969130111354243
0.4578493177370252 -0.368546730476692 0.0015612123930683092
1.7569695711241518 -0.3946416402267504 0.340165815235166
-0.9476786814283754 0.06045296026336544 0.23146479966365843
1.640030408795129 1.4546000901953728 0.5743675112513099
0.7556407398494978 0.9822847496304833 0.31000549184020126
1.761961062042821 -0.7232689093139893 0.5944910836049359
-0.19491507733154376 -2.1060157028554896 0.7447932907445771
0.1938460117665632 -1.2622434638787203 0.3221325508205928
-0.8016093186272659 2.0903993186548107 0.6170454373627037
0.1402986815093495 -0.5101255749178975 0.1778160271013713
1.824067753960727 -0.9412306875316314 0.6905253486529556
-1.0078006074302768 -0.15216382159838637 0.06498241821889784
-1.7071731507354273 0.4491261235058736 0.323281329137589
-1.037167598441726 0.12372134898464446 0.07123562990501406
1.0906758091402873 -0.01493973618522406 0.08264786301452123
-0.5943015545625372 -1.2679948235264886 0.36480926689508647
-0.0882094523132568 0.3918059770708314 0.177800003439188
0.05386119922075798 -0.26026581121284964 0.177800003439188
0.09684441557048115 -1.5298865821363683 0.2249778124297993
-0.601371102449721 -2.0307820057453285 0.7477286181280316
-0.7856123362560177 0.5658747688227821 0.05379674266033925
0.530985492418336 0.379943160361175 0.005390159745760332
2.0040610946394284 -0.3837056902422502 0.681626186945209
1.354284529429513 -1.0507782405138857 0.3003951605816204
0.5730340292617974 -1.1851247887491296 0.14814196304828522
0.7596737565621019 -0.09731036350522454 0.1970597386608347
1.5119439195398687 0.3082067664543419 0.2288589301371009
-0.36283390252403763 -0.6290645701364426 0.19166794796945624
-1.418040644432301 -0.6877199716578286 0.24191755511295512
1.57761202011899 1.322113443609314 0.6949055226591133
0.1281982830626603 -2.2907935840131226 0.7474971105543424
0.9460595938860026 -0.7855346252068514 0.3069373406941802
0.09245104251307507 0.5573314862322071 0.0004287992400930704
-0.27904488288945395 2.0326073688937973 0.4755072557546096
2.1276904855918777 -0.5491698355472617 0.7620000094175339
-0.8691706310019904 2.0887923952950995 0.6431514062607666
0.6764679391355649 0.9860252744781107 0.11129063915882502
1.5048465308763261 -1.4002751249579841 0.4778801093273468
-0.5666291645154957 -1.6793449243776104 0.5239417959586824
-1.2774300433934278 -1.6552772732346797 0.7216700468602582
-0.3189936073190259 1.941054569542997 0.6318198565494935
-1.066724800877892 1.2858690623510878 0.28115675696507775
-1.5139110492728634 -1.4458865175028364 0.7236685552740547
0.7850071579873394 0.7677722415190663 0.2681847232919664
-0.8648828204056425 -2.123578709038268 0.6920500205097142
-2.0578306897437866 -0.8233127365805868 0.5955628596707414
-0.9100428990631191 1.9303580221140495 0.7620000094175339
-0.47715146122010343 1.388813760288137 0.20077130550740538
0.6535645698306194 1.2786367157469634 0.1887445498746337
0.5792765237581294 0.07426830616769786 0.17900339431403722
0.5213405624357343 -0.24799988542788282 0.17879981085620172
1.5333406704711696 -0.14566985584479222 0.41917141214967024
-0.4136359553959855 1.1986184759749519 0.13298370969691697
-0.557425583645238 2.175098326059585 0.6235272277027045
0.08416329868680196 0.003497842411504904 -1.2481651746731097e-16
0.3773619491983866 -0.7898284149692474 0.21589489336895723
0.30052555665168157 -1.0360176783896389 0.07967182851700322
-0.9618391266570224 1.3661657420490791 0.4755449887938231
-0.002985779446920936 -1.8896815902620732 0.3843775131658026
-0.3780037690839557 0.050392038379956094 0.177800003439188
0.7485966494417778 0.08858798825179948 0.1953698324402933
-0.4792778345766799 -1.7563331731030813 0.3497361522427409
-1.2783034668548412 1.9103730120350026 0.7148626018609094
-1.3113548870411926 1.3845870298914331 0.5958422714349992
-0.5236057191949351 0.34899746356760875 0.18173491898909058
-1.658720008091429 0.7484992974690552 0.5479044554306144
0.3980002639767255 0.6521871549447139 0.19676470131110294
-1.6853322176500756 0.19845637093923008 0.48752391860179667
0.5459275638076376 -0.505848249646035 0.01494899209438395
-1.001647541544455 -1.1074937556382916 0.4003108967293345
-0.33197764764637017 -2.103797971543492 0.5265299451379858
1.4636476747870888 0.5990159593251736 0.2442708534645427
0.4985377099050878 -2.2168177670001734 0.7620000094175339
-1.1184483186107714 -0.06616045102402006 0.09017814492436256
1.9953469617873516 -0.7348026778076865 0.757323599628169
-1.7894868255922565 -0.19490764306847694 0.5377818084328967
-1.320550546536585 0.9751374865689741 0.46231231681010093
1.4841864180172322 0.2002502687652846 0.40204466245898873
-1.0045640043442758 -1.2807541417862178 0.26306989142609094
1.268267643263602 -1.1368165552792884 0.4902551549203638
-0.7429183897830466 -1.8921876685744208 0.4639288359836244
-1.1539650504331125 1.8993380009592098 0.6013422700490711
-1.5483890349725549 1.4503392379279698 0.7515371115286158
1.4299972354812687 0.8665750969126256 0.28161848258383904
1.298151942754389 0.08593724247646045 0.33011871985406205
-0.5584200900747962 -2.1297061280363536 0.7620000094175339
-1.1778091301912732 1.8461791895398112 0.5724015421110176
1.0991730522082568 1.1311678497176452 0.24253896683182855
2.075103225513018 -0.3984090209647614 0.5151816028107616
0.19237075930523628 -0.21869252670479172 -1.684607170368212e-16
1.2692829828334695 1.866303902813301 0.7620000094175339
-1.2652118766769993 1.1990326731614926 0.3132046639707325
0.47635937937504114 -1.7155232897699393 0.33055671848934254
0.13671706871068506 1.9539617052082079 0.6267621823953191
1.4465690913365954 0.8895390884143984 0.4879798770920917
-1.9612780890648303 -0.5487256362113251 0.4659901972171738
-0.34277892486130807 1.832331442469678 0.5718125885458745
1.3010386381594556 -1.4334786951655594 0.4083306512513889
-0.9351542752244644 -1.8138392741061724 0.4685538224437984
1.136466681570889 -1.5176907376805842 0.5894252460232486
1.5185673827094526 -0.9344391614292276 0.5291956193843936
1.1502323927118476 -1.7894379082214382 0.7590501951108772
-0.11364207070417685 -0.4263485808140502 -2.0007048775681478e-16
-0.4270249784204519 -0.0919086148754299 0.177800003439188
-1.8734425343129446 -0.48583520961860127 0.4081143712996385
-1.4889305870543323 -1.5027116050453477 0.745218676029295
-0.8277752959860682 -1.4241492447940507 0.46473408563797725
2.1183247791897255 -0.006885028002793455 0.7484259794558241
1.7102855178800158 1.535497474824459 0.7114458551261018
-0.4165484571397035 0.0969483225507061 0.177800003439188
1.1550003285025479 -0.8021572623293655 0.36705899966809497
-1.229349125918522 -0.5270155447105613 0.1548418337757541
-2.18975346717899 -0.4200234849768525 0.608034652612434
-0.6165031424037998 0.16884092858396846 0.18257949412036395
1.7810288752382757 -0.711625160386873 0.6022771684972141
0.8571635801304095 1.7625931613876484 0.42188625699945725
-0.24417087367372106 -0.48787478915115834 0.00028347786828358015
1.198500458960814 -1.886728986450274 0.613177263049895
1.7029066939482012 -0.439613840171437 0.3201754558327346
-0.1913531404454752 -1.8306736481707842 0.3592939794992879
2.0847925189619065 -0.23585326662753134 0.5053708313111479
-1.0205989975582979 1.576672774308493 0.3782716249132346
1.822141800236683 0.13999989646267813 0.5520473108693933
-1.0056535794550427 -2.067376807426062 0.719688299964141
1.807646852856436 0.28738468874720646 0.5535664009964236
-2.153721811529568 -0.40178319415544367 0.5732699572756845
-0.08820091193388019 1.0369731443327375 0.07029593585028678
1.1213785306077426 1.0850443797424658 0.23554778584281774
-1.6639376429776283 -0.7688839837944459 0.5549548300172179
-1.422847840641945 0.9940864422166211 0.5058267414037795
0.24327014742776398 2.284407985688773 0.7397723950476447
0.37106847691507683 0.9936953661536135 0.25834720789402293
1.3731382782102997 -1.66879322541723 0.7620000094175339
-1.4363749552588616 -0.37897690781899696 0.397275610051518
0.41395633352209227 1.8302497688398465 0.3775332396823813
2.028679188196245 0.988980425995558 0.7620000094175339
0.6725318702090799 1.21133921536032 0.3595032780017271
1.9869564696577666 1.1156915242251864 0.6658347782034026
-0.5583072257156495 1.8358210677936433 0.6024959664581847
0.8936234981667156 -0.7886955748327019 0.11016967909164296
1.6486688106565253 -1.1284062020288375 0.6517251890721125
0.333455761418715 1.8424088159537155 0.5761321961047974
-0.6869723028627568 -0.9584349479338977 0.10662677117390584
-0.21558265432753915 -1.8440925361453688 0.5676322264909033
1.499102347992633 -0.5508612632266354 0.44282258009900105
-0.8179379261148477 0.5290303674092133 0.23689398912696125
-0.12039452899351624 -0.7851423532748565 0.021804164791976326
-1.9912111641261632 -0.26655468617109507 0.4492115036074069
0.5360743813069168 -0.7620384952682824 0.04601795467441444
-0.9450375296958863 1.2798951397295064 0.24815530941077635
-1.711819474750353 0.0632443137052159 0.2998140942498367
-1.1826044144871255 -0.7549315357253672 0.1774645108742909
1.392809542882367 1.581016518431782 0.5113170257446774
-0.44920463646021563 -2.1469454436516995 0.7620000094175339
-1.563041504308671 0.8218957791962074 0.5206917014757407
-0.4540194541937195 0.19411523312542353 0.17780000343918798
0.04386563282738565 1.302901540615685 0.3309879136900392
1.2760811449575162 -0.026026735387088648 0.13563213836054186
1.5575643607917544 1.3004442555031879 0.673138471563518
-1.0041968522806364 -1.4175432540646922 0.31043338431355516
-1.1975270170623256 0.38628178963056753 0.3161310158156032
-0.35924461778118205 -1.6472835131615413 0.28788443198469893
-1.812615739953527 -0.10770739134943444 0.5459948816586166
1.6205111790098814 0.4413594925085884 0.2849985075904224
-1.4208696676870392 -0.4881731817338204 0.4037792881058132
-0.6577489929284698 0.7647114719289371 0.06236134204016363
0.2654948791541607 0.03828775965256397 -1.636022660556774e-16
-0.721118036914526 1.3276898829400252 0.21676139747926776
-1.8963310981783628 -0.5253021208286758 0.4260368593312862
-1.0901856778925054 -0.12532824432582554 0.2680434113170341
-0.1046713505587141 -1.5248136599484492 0.22321107508226756
1.4839084977010664 1.424237710253442 0.6937130458899223
0.297562805211323 -0.400765552607938 -2.122881620958039e-16
-0.6328835770006365 2.2101561349944845 0.7288212694087872
-1.8199209773970282 -1.0502972664269246 0.5074837099834804
-0.059248192339836254 1.5196513097957247 0.4112160433509651
1.1175935943616722 0.08405144670542977 0.09028117712548309
-1.7990592960752 -1.3153532776097585 0.606990134915139
-1.0065588314768261 -0.7726652589215166 0.31947927530840936
1.1331813794680352 -0.1341049483287839 0.28028281034608754
1.0591194355165316 0.0704094762406327 0.07541932027155729
-1.7880170107921167 0.3080010323873942 0.5452780486594812
0.7241063470420637 0.7982125863612843 0.07942512717218284
0.8569261530543295 0.1461816674095483 0.21464815537983437
2.02884005229558 -0.4202753941201711 0.7055262956716767
-1.297311081017294 -1.6951615635588198 0.7620000094175339
0.2367837990762485 0.08124783611636943 -1.5983165939558937e-16
-1.8781806322123278 0.23047098523848064 0.38568264389664597
-1.3040541169744622 -0.21860079860021792 0.3373931982538151
-1.6421949813944217 -1.3166353992829816 0.7345435141253629
0.5147704280700576 -0.7562099000255057 0.2238232395288628
1.0950914709046087 -0.7443196372860971 0.3379522861601121
-0.6964421326130104 -1.7208217725148158 0.3669636238847074
1.164301145193734 1.6168223827227746 0.6483296137145316
0.21849322839836544 0.510247974375432 0.1781286911140172
0.6600431748696969 1.810424799511523 0.6075062524169995
-1.4781387363267016 -0.2586191612966227 0.403212098188656
1.489675476357437 -0.7120068820105231 0.2726673780605555
-1.7762423646260603 1.1803554028302021 0.7620000094175339
0.1626786574879795 -0.537318051446674 0.17832214205162736
0.48913243507537696 -0.6517228188809432 0.2047951314062829
0.44227717787327403 0.8905651899314142 0.05935200393549622
-0.11360674820905725 -0.3185653980595834 0.177800003439188
-0.22477800106275553 -2.043247043146529 0.6924699537532865
0.8019155379952274 -1.1607172603185865 0.18009987240297384
-1.350700229196537 -1.1368740161699966 0.3233827508213717
-1.3112959492753238 -1.378206553796644 0.39084436232878195
-0.1075930585048896 2.0806087271699996 0.7150513935983647
2.1854775572223946 -0.30506388094703163 0.5864930861944704
-0.38949704329376383 -0.8637075523802382 0.23098404227985875
1.554852390202313 -1.3954329388359208 0.719827084888691
0.39823066398687545 -1.0233002859025977 0.08444875163227782
-1.4071904808133628 -1.7717998245087518 0.6435912153036732
-0.37962830800676206 -0.55619863980178 0.007353800474926156
-0.4363536664891948 -1.576538666710487 0.4598087356083802
0.11498088218059567 1.259168637927242 0.3180464482744889
1.15459373561845 -0.4899901029406503 0.31474052571096595
-2.04747736300752 -0.5086878622939053 0.7389935042805278
1.706034487580515 -0.15064721908620818 0.2996057346635623
-1.9931930278516057 -0.7000342548104005 0.5150307534209323
1.3769263244870351 1.3758490957090619 0.6191552956638614
0.024501832572846535 -0.23422092900845334 0.177800003439188
0.11650840633553586 0.41319134795306567 -1.9756272213430876e-16
1.4952691767343995 -0.16556135708424555 0.4046641039178067
