0.3735216822312114 -0.12295936743492185 2.315429784048582
0.5596239070970264 -1.2065000087022781 1.1092780701953178
1.3969999551773071 -1.2010321044676187 0.3087570532252918
1.102166047903431 -0.12441866832365617 1.7795848919989927
0.1587500050663948 -1.206470727689436 0.17217635141667648
0.6466569397334859 -0.8698942289377781 1.2065000087022781
0.1587500050663948 -1.2980258960208664 1.1672941602214582
0.27172957025741723 -0.11112499982118605 1.1595076905844535
0.9070106524569771 -1.3325825500764705 1.3017499446868896
1.2666903610823312 -1.2001622092494744 -0.0634999992325902
1.3969999551773071 -0.12605347278460602 0.4980532915825441
1.348569514889799 -0.9073002763865484 0.9207499772310257
1.2700000405311584 -0.7529226120354306 1.057590240051742
0.4852019161392598 -1.2926448430831194 1.3017499446868896
0.013665239556780947 -1.205492563171746 1.206500008702278
1.4605000615119934 -1.0573689523207845 1.2381143619311967
0.7705138148468211 -1.3017499446868896 1.1227508681459548
0.4089485363832346 -0.038967563375041675 1.7445731155731004
0.7796286915322288 -0.665688116055615 1.3017499446868896
-5.066400077247124e-09 -0.12200389249035755 1.217881500370773
1.3178632987570238 -1.3334999978542328 0.7956914174194916
1.1371989358359123 -0.11112499982118607 0.9954316775776415
1.338417362578874 -1.10202264130643 0.9207499772310257
1.2516854259030765 0.0 0.0023623543152292703
1.2118996602935108 -0.4414420455551385 1.2065000087022781
1.0756640878425612 -1.1547755639994626 1.2065000087022781
1.1908858630365022 -0.11112499982118607 1.122815136158869
0.05043127193077472 -1.3149111190103955 -0.0634999992325902
1.3969999551773071 -1.29859630561861 0.3380711196981845
1.365250051021576 -1.0581966941427043 0.9628145591739823
0.27538279232055546 -0.11112499982118608 1.2003718419288192
1.323065250209191 -1.1409413772601382 1.2065000087022781
1.3713518057241514 -0.15589527683026527 1.4997701616294457
1.3969999551773071 -1.3122208993484183 1.192567381156353
-0.06095282171711797 -0.30293273751309685 1.3017499446868896
0.28969704669359786 -1.1702762750343108 1.3017499446868896
1.2382499873638153 -0.11270484084195322 2.260814976573567
0.7642306363445152 -0.11860134557862702 1.8905846938089743
0.1808230313235644 -0.39178271188195823 1.3017499446868896
1.2700000405311584 -0.4879769629487335 0.9262024825847857
0.434315574252207 -1.0907843555366081 1.2065000087022781
0.02563561561613218 -0.1367322668818441 2.1896384523196057
1.3969999551773071 -0.12735198646384693 0.8102826304700134
0.1493127685711748 -0.09314910317046761 2.540000081062317
1.396999955177307 -1.2254779960145203 1.1419708146944538
-5.066400077247124e-09 -0.028177965676496868 2.01092325828325
1.3537218041567036 -0.1587500050663948 0.7442235110513782
0.09733874253401756 -0.9312074483431863 1.2065000087022781
0.7682703059955505 -0.1130455047085617 2.504595289561862
0.21014136386476207 -0.6499197740716006 1.3017499446868896
0.2034768904345047 -0.12303141343367449 2.314055080953489
1.2827177371335663 -1.3334999978542328 0.27455685714382927
0.3610728101124014 -0.01587499980814755 1.0801747282866916
0.29066784342568297 -0.026851366989545267 2.030076889623375
0.7682705693872582 -0.01587499980814755 1.1141929148767267
1.2382499873638153 -0.0916670942832837 2.4821539684925558
0.013861841684622568 0.0 0.33752607663750944
1.3016349566174141 0.0 1.940996721975759
0.12160082422750876 -0.1587500050663948 0.18068410933251552
1.2636279488683648 -0.4917685675153305 1.2065000087022781
0.6130918045775571 -0.6190910531529547 1.2065000087022781
-5.066400077247124e-09 -1.3273715667833557 0.2932686144079371
1.022865133664901 -0.022113715860368217 1.9117097272508938
0.1587500050663948 -0.103581372385656 0.4184334265825676
0.19575022873627396 -1.3472554382377848 1.2065000087022781
0.8714743003416581 -0.0725968698781347 1.2065000087022781
0.4115960556097271 -0.01587499980814755 1.0930888627124173
1.3969999551773071 -0.04981741663436742 0.3777670100535696
0.4731130508059622 -0.023934980363759812 1.8769583462839763
0.08546454758005598 -1.3334999978542328 1.075901848497241
0.8949003750442035 -0.01587499980814755 1.1293699681218572
1.3402493030408014 -1.2310498117641637 1.2065000087022781
1.365250051021576 -1.1714947753757141 1.038338898447765
0.0317499996162951 -0.3751984094567308 0.982432614682428
1.323198536965319 -0.15875000506639483 0.01444938271078023
-0.06030833447741444 -1.2124616633436134 1.3017499446868896
1.405905572231293 -1.3900773815242955 1.214320525590453
0.1269999984651804 -0.5799938503772798 0.9782884712762818
1.3969999551773071 -1.2848675431775483 0.5319963887173195
1.0144297278415126 -0.01587499980814755 1.0749197414537137
1.3969999551773071 -0.10152930547358484 1.3972535744455055
0.17976158580628981 -0.01587499980814755 1.1362585022108496
0.0317499996162951 -0.6298438077943689 0.9993462860652559
0.1587500050663948 -0.15391099322454488 0.14407083752133748
0.1587500050663948 -0.11458555517432922 1.2646920021058374
0.41192984196940796 -0.02939759470202307 1.7727267030543294
1.4352157213063732 -0.6229027037789379 1.2065000087022781
0.8709643611887854 -1.2065000087022781 1.1396800046258173
1.2382499873638153 -0.11283724693672252 1.9504675315316904
0.1587500050663948 -0.010695370167405046 0.34875442782259986
-5.066400077247124e-09 -1.2275268394231875 0.36554122573077485
1.3969999551773071 -1.2940257119798866 0.7699561294058752
1.3969999551773071 -0.09084407769271718 2.1982077845280363
1.291749301250515 -1.1256512810917645 1.2065000087022781
-5.066400077247124e-09 -1.208561420035483 0.11277887692251404
0.7451000187116361 -1.3052263858602413 1.3017499446868896
-0.0634999992325902 -0.7242374941157645 1.2307153403830946
-5.066400077247124e-09 -1.2961398283142307 0.038164401723618666
0.1430204709866098 -0.1587500050663948 0.45032559637510416
0.12478410138700757 -1.3334999978542326 0.19146013662027825
0.3792749380783932 -0.13970528772036003 1.3017499446868896
0.947265262194944 -1.2065000087022784 1.1357722214391859
1.2415541729397934 -1.3334999978542328 0.41006386988634513
0.33516721613159217 -0.07329999052720163 2.254372387615657
0.021345393756152402 0.0 0.7717040160475517
0.10898329958819714 0.0 0.08262944409798004
1.1546522080953532 -0.0660867991429404 1.3017499446868896
0.10552901959000732 -1.174750030040741 0.6330794269684081
0.9759777006779693 -0.11112499982118607 1.0919730913451795
0.23552159607520648 -1.3017499446868896 1.1837199301990433
0.9316898836645167 -0.02258634755024828 1.902691485319821
0.48595982480548056 -0.01587499980814755 1.238874345675069
0.28283258350616064 -0.8381243792943865 1.3017499446868896
0.6879905667562349 -0.07674052226396097 0.9207499772310257
1.2447578734523597 -0.4299646101065405 1.3017499446868896
1.2328478136682262 -1.2073069149336983 1.2065000087022781
1.1573466532057894 -1.2847828280880889 1.3017499446868896
1.4452904675275702 -0.7402189338554757 1.2065000087022781
1.329839999954746 -0.1587500050663948 0.24450735272529292
1.0844203757545494 -0.3989371622338112 1.2065000087022784
0.1587500050663948 -1.1912230184291208 0.5707892740611806
0.1587500050663948 -1.2175843331685106 1.0728502818305272
0.0317499996162951 -0.37068768483326253 0.9711427739729173
1.0221927787449023 -0.03660625177429892 2.2524493325931143
1.365250051021576 -0.5910014797840687 1.147673464128086
1.2382499873638153 -1.221979498554743 1.1374324814027177
1.365250051021576 -0.5687434371993854 1.0206699759116213
1.365250051021576 -0.3517925397921315 1.0399722306765529
0.18747014749472407 -1.352278074131585 1.2065000087022781
0.12532455424382266 -0.36308585428868345 0.9207499772310257
0.28373597056133953 -0.08581060746689838 2.25502804728836
1.0998470476527245 -0.12189611426573613 1.8277175146428633
1.2546807515711418 -0.9877330992927663 1.3017499446868896
1.2382499873638153 -0.012760378413068393 1.4745033157150806
0.9485477480681586 -1.2396003276315457 1.3017499446868896
0.593410259368811 -1.3017499446868896 0.9667394469508015
-0.010050013523873334 -0.6605184918175118 1.3017499446868896
0.10937834315723163 -1.174750030040741 1.111585547781038
0.6416833265941277 -1.3918284470453648 1.2065000087022784
1.238249987363815 -1.1999406772459378 0.8442306571454157
0.1587500050663948 -0.0997933611275218 0.7970633383386337
1.301081612633567 0.0 0.8596734348238145
0.01738268042918057 -0.2287400423857857 1.2065000087022781
1.091856472312378 -1.2262747231308868 1.2065000087022784
1.3095169505742543 -0.15676923267023463 1.4683077544668377
0.5155550416966745 -0.1170268560165523 2.4286274903709897
1.189038348615704 -0.4637419161068187 1.3017499446868896
0.8304804786846862 -0.5361921191176091 1.2065000087022781
0.3383503429972997 -0.8249942613374928 1.2065000087022781
1.2382499873638153 -0.02209880726146253 1.1954646085151943
0.34517972510028555 -1.2514143063611742 1.2065000087022781
0.5246976838267654 -0.8450358075518334 1.2065000087022781
1.2382499873638153 -1.1911826865575927 0.03250435674138482
1.3969999551773071 -0.09581119658505347 1.8362509243653236
1.2700000405311584 -0.4486080754053967 0.9723253586796907
0.13845464968720667 -1.3078470887431108 1.2065000087022781
1.2234764809940992 -0.9211366022585286 1.2065000087022781
1.2382499873638153 -0.004289881416618969 2.31408380270322
0.9440160569350093 -0.01587499980814755 1.128161160119843
0.0449704306919073 0.0 1.59813395604706
1.3532518277996706 -0.1587500050663948 1.0224065208418962
0.4635955557682531 -0.01587499980814755 0.9849034848764762
1.2781369521272745 -0.6126933453930736 1.3017499446868896
0.7174462702000197 -1.3017499446868894 1.1966845933614627
0.5119612233994071 -0.11631313773529807 1.7486265414217872
0.1587500050663948 -1.2705541487161107 0.2370643776566037
0.9357360876560861 -1.030639242285468 1.3017499446868896
1.297321788812418 0.0 1.1247546654870313
0.2513720153537374 -0.9767486098486399 1.3017499446868896
0.05248506681406076 -1.174750030040741 1.065429381184042
0.42070193255317384 -0.06802578718273544 2.0322347048635643
0.1587500050663948 -0.0437533451064917 1.424084366728432
0.9578255619852732 -0.3881371604756957 1.2065000087022781
1.3365321663435368 -0.31810011251822096 0.9207499772310257
0.05700656191524044 -0.15875000506639478 0.6832086530282139
0.0317499996162951 -0.5454299781714687 1.2014555725303897
0.8088428309570496 -1.161345927432911 1.3017499446868896
0.7858837730502131 -0.7553760709400131 1.3017499446868896
0.6806652080761915 -0.04103616155424658 0.9207499772310257
0.8178562975715574 -1.3017499446868896 0.9548467832928544
1.2382499873638155 -0.03348745437483238 1.9469719377234678
1.2700000405311584 -0.6819009417194344 1.1620977089669122
0.44711751954595713 -0.10318263053601527 1.2065000087022784
1.2382499873638153 -1.3277025378051752 0.7964270336615265
0.06473040075648087 -0.07704134831346733 0.0
1.3969999551773071 -1.2521056218348172 1.0400973674078509
0.24236819291702577 -0.45558863296305685 1.3017499446868896
0.9204863971240907 -1.0594460914614694 1.3017499446868896
-0.013029206583377206 -0.8254015587002438 1.206500008702278
0.10418114241695056 -0.1587500050663948 1.0561990989107926
1.3810373269463414 -1.2970085516552265 1.2065000087022781
0.15493554234019732 0.0 1.0372338475982281
1.4605000615119934 -0.4229717269579615 1.2475028020824876
0.01059420951944233 -1.3334999978542328 0.5101828698826685
0.21444130428590819 -0.5459887759248379 1.3017499446868896
1.2382499873638153 -0.01654093256974319 1.7228324444724972
1.3652500510215761 -1.0281144829717475 1.0429568038477681
1.357317458297444 0.0 2.530059169445118
0.3199628105684863 -1.2883447976367193 1.2065000087022781
0.9053570239756707 -1.1524184027372795 1.2065000087022781
1.149679681735086 -0.6879243025632584 1.3017499446868896
1.2382499873638153 -0.05423642468517487 0.717714162125811
0.06533483702205752 -0.8699075954647264 0.9207499772310257
1.2519824555796535 -0.9133212365472344 1.2065000087022781
1.3969999551773071 -0.0693713129818005 0.6876445185257108
0.25503949307833357 -1.1535245545559294 1.2065000087022784
0.06097956781085241 -0.32075583952158104 1.3017499446868896
1.2245830348132047 -1.2065000087022781 1.1350981366797455
0.032419575460210216 -1.3334999978542328 0.352840751048087
0.4442999485018195 -0.023391854476442167 0.9207499772310257
0.6644017960095455 -0.266933294002569 1.3017499446868896
1.2088012276363667 -0.11920440785210001 2.387077823493164
0.2471798467135981 -1.3364991496256113 1.2065000087022784
1.2700000405311584 -0.7865159978000885 1.1632354468462798
0.3597539047961195 -0.933565376719986 1.3017499446868896
1.3078089785453142 -0.538032721005617 1.2065000087022781
0.12790073926836676 0.0 1.3493489538744299
1.3851778668640258 0.0 1.3341541404230783
0.21712139673599445 -0.11580355653807398 2.4519691555349823
0.4226852701596727 -0.09600454546254233 1.7475622352407327
1.3428536000445859 -0.1587500050663948 0.7383200808115937
0.6993527827078384 -0.015874999808147553 1.1904238060441028
0.8603520369198149 -0.09245432112771663 1.2065000087022781
1.2423416214217013 -0.6244344837558012 1.2065000087022781
0.6538445800131899 -0.11112499982118607 1.0989334903740746
0.021729824335327053 0.0 1.347763567478299
1.2382499873638155 -1.1779542214429204 0.7210754012564008
0.2677324530146794 -1.2065000087022781 1.0042131498364302
1.3969999551773071 -0.15718299559352727 0.6752248457105077
1.1262700320085886 -1.1755917716594089 1.2065000087022781
1.2382499873638153 -1.2960537638029472 0.37876502460660183
0.5539989191414928 -0.33552344793989264 1.2065000087022781
1.365250051021576 -1.0064248123157586 1.082042283922294
1.0272102736919235 -0.4041435905273759 1.3017499446868896
1.3834542009000743 -0.7202295520616411 1.2065000087022781
1.2700000405311584 -0.8901810826960027 1.1401318575900656
0.848062003003701 -1.2880338782421827 0.9207499772310257
0.1269999984651804 -0.8965148766088522 1.0967471710665306
1.1810633297555244 -0.055903841417016875 1.3017499446868896
-5.066400077247124e-09 -0.13557801672474082 1.609642357074621
0.07386320139342459 -1.0307946556069978 1.2065000087022781
0.1587500050663948 -1.3318962167458666 0.485088714072387
1.340677384195159 0.0 2.0649581610133914
-5.066400077247124e-09 -0.03008020382209723 1.8065695721398758
0.1587500050663948 -0.09551050633956157 1.8106040741594525
0.36861795354318805 -0.5168226298760324 1.3017499446868896
1.365250051021576 -0.40471317485667524 1.0704186400389089
1.3969999551773071 -0.022160653425858764 1.0480681064469821
-5.066400077247124e-09 -0.009993609851195183 0.34856668150767867
1.2347511835284373 -1.4128750562667847 1.2143167938321504
0.4348177186645372 -1.39008212118903 1.2065000087022781
0.5585605514001101 -1.3017499446868896 0.9725295364849978
1.2382499873638153 -0.08865817915144733 1.8435752208607474
1.3867406507914681 -0.3275831833861858 1.3017499446868896
0.09059551788631505 -0.32774516810695076 0.9207499772310257
0.931185742428824 -0.7327843663588838 1.2065000087022781
1.3436979897492662 -1.3334999978542328 1.067380451958974
0.12699999846518037 -1.0204478464105036 0.9471822092207932
1.1359979598507715 -1.0677266380615835 1.3017499446868896
1.420377404681167 -0.19938722504436193 1.2065000087022784
0.1587500050663948 -0.01971641352135594 1.4124996317329348
1.2034368442818533 -0.8980980597045439 1.2065000087022781
0.6039015707078615 -1.1798453553000372 1.3017499446868896
1.2163655805305205 -0.01636153514393176 2.5294665165950825
0.5622990741431996 -0.10913384368961812 1.2065000087022784
0.95583815337661 -1.3437651137928384 1.2065000087022781
1.238249987363815 -1.2390742502778604 -0.04201991574780544
1.0633187387284107 -0.6648133810169793 1.206500008702278
0.9365430206803582 -0.16391195782228063 1.2065000087022781
1.2026696022925267 -0.023072060651554267 2.4014235947848035
0.9717557168086453 -0.25729983755130864 1.2065000087022781
0.8471254714899157 -1.2705630126072973 0.9207499772310257
0.2665276180293737 -0.01644701183975155 2.0198355869931186
0.0317499996162951 -0.3386009286770366 1.094799511340094
0.13574739495821722 -1.1590306474720726 1.3017499446868896
0.1269999984651804 -0.524998578790067 0.9432222234497051
1.150073690341497 -0.01587499980814755 1.2928965519434155
1.058263404367483 -1.2395010621340135 1.2065000087022781
1.238249987363815 -0.03295873286144166 1.0133773749343304
0.14795519758538245 -0.07022605061708541 2.540000081062317
0.0669189938790783 0.0 2.1421356192491867
1.2382499873638155 -1.2189805381942684 -0.05595672438896363
1.0456652001627904 -0.06307546134066566 1.2065000087022781
0.8165248324125027 -0.02145486223923697 1.924281252774357
0.44088909686072925 -1.263593246647122 0.9207499772310257
1.1174381391344452 -1.3017499446868896 1.0029756696666094
0.08329299553641703 -0.15391356565631711 1.571111756916037
0.1587500050663948 -0.011662106455958979 1.9541962190164432
1.1922482292429937 -0.045069925999647056 2.031031664070758
0.11541961465599472 -0.9016401905359829 1.2065000087022781
0.3166946650304548 -0.10202284492297775 2.2558777024536876
0.0317499996162951 -0.46308034964968037 1.1579545018010913
0.031749999616295106 -0.2902231975949446 0.92585721026549
1.2700000405311584 -0.8371717754221631 1.1943490937969075
0.1587500050663948 -1.2858015803697418 0.9758382991531542
1.0742993157692613 -1.4128750562667847 1.2985239631163656
1.4605000615119934 -0.8863428484361442 1.237231505374884
0.5710915729737944 -0.01587499980814755 1.1140653123031732
1.238249987363815 -0.008814007303335786 0.8265735576850117
1.0904939768339703 -1.2140725602297087 1.2065000087022781
0.351342590177725 -0.11112499982118608 0.9381741634344637
-0.05628122996672026 -0.7612460185316088 1.3017499446868896
1.2391231963781384 0.0 1.867538200414399
0.8413349691398248 -1.3017499446868896 0.9417613130587068
0.14911111456507595 -1.3334999978542328 0.9138226360632462
0.7192084285769668 -1.2065000087022781 1.1397881567103054
1.2382499873638153 -0.12079584357332812 2.496269671814128
0.8522591946519574 -0.11141777460614044 2.5356538583722807
0.7071389006992239 -0.12361937721180366 1.7948360924038393
0.23963929604971357 -0.02668862847802573 2.33241619575168
1.2492972348968148 0.0 1.756198559568117
0.4000375536094092 -1.0407517970818712 1.3017499446868896
1.2363818160033977 -1.3017499446868896 1.0952820192741322
0.7063278996034836 -0.12135758506472946 1.2065000087022781
1.2700000405311584 -0.5250448721792886 1.1241137856872494
-5.066400077247124e-09 -1.186564839178009 -0.0077985804527299155
0.1250230308386439 -0.1587500050663948 0.2819264937001286
1.091786508162982 -1.2065000087022781 1.15595094540885
0.02908394692791555 -0.1439483676234533 1.9298588510220493
0.9219057660442307 -1.1224323462857129 1.2065000087022781
1.188844412542014 -1.4128750562667847 1.2545860531655582
1.3874869299027144 0.0 0.19517093020859594
0.0317499996162951 -0.38912334769271245 1.0202957181550605
1.105348065619753 -0.08021619572205477 1.7467348200269273
0.43293630261835647 -0.11112499982118607 1.0889777822625193
1.3391614826539504 0.0 1.7489977712801072
1.2505108084078183 -1.174750030040741 0.3344578680429148
-5.066400077247124e-09 -0.1585017708991474 0.25671954671069186
-5.066400077247124e-09 -0.03474811682039104 2.215811748302487
0.17586605900420757 -1.0200163324086122 1.3017499446868896
0.03471229412739284 0.0 1.7128960467050547
0.1587500050663948 -1.3224287486253639 -0.0550368888992693
0.1269999984651804 -0.4681153502597035 1.0412724388539325
0.1587500050663948 -1.31839316094401 0.8177180231099903
0.14754233760616062 -0.621887372335006 1.2065000087022781
-5.066400077247124e-09 -0.004845789936119884 1.8708887214695848
1.3824265672842335 -0.01623386759676642 2.540000081062317
0.8125552238795285 -0.12031084820083873 1.2065000087022781
1.283183354619405 -0.1515538670066086 1.656060899999501
1.1112760121181235 -0.1365144127746621 1.2065000087022781
0.1337180131034169 -1.135217088535127 1.3017499446868896
0.12543956315762844 0.0 1.824820336912897
0.578333895608293 -1.2065000087022781 1.0426507130109706
0.5571478527541714 -0.10786092769254002 1.2065000087022781
0.8333835150193378 -0.05250735179664422 2.253282681586735
0.037041332466473356 -0.12890299632395702 2.471492164844832
0.5438586081401344 -1.1917760557009394 1.3017499446868896
0.9232853760977031 -0.04602705823699349 1.3017499446868896
1.0517438545866564 -0.6890314526777916 1.3017499446868896
1.2382499873638153 -0.013139743674205801 1.638067196862596
0.16123152396089918 -0.10467605514297944 2.542155519861291
0.08757703393734967 -0.15293865141408114 1.606208666204875
0.5450288384046739 -0.5345627069963289 1.2065000087022781
1.2829966955959398 -0.14754647175433544 1.8003271149754703
0.6311803659602478 -0.11777172093195225 2.414414791229404
1.2382499873638153 -1.2619876675980035 0.3135473262223982
1.4242213813202296 -0.3810176898706724 1.3017499446868896
0.13274508187143166 0.0 1.0044062398079827
0.7560916274497331 -0.11112499982118608 1.1927182567502008
1.4605000615119934 -0.32493615793095926 1.2778976429399176
0.1587500050663948 -0.14619376058867606 1.4139238415530986
0.5515498768294348 -0.12561975450164048 2.264667182404047
1.313546082436171 -0.1491463874444243 1.7427301557639086
0.14218987928745377 0.0 1.0508298148337858
1.3969999551773071 -0.13594919114824314 0.495158274515904
1.1160679071859931 -1.04317974074013 1.3017499446868896
-5.066400077247124e-09 -1.2305830931980297 0.25801788661826724
0.20652998237752135 -0.5216627276001251 1.2065000087022781
1.3311941986870255 0.0 1.7523865358105901
0.6548225693242261 -0.11991238680144901 1.74881516616627
-5.066400077247124e-09 -1.1824466928479138 0.2912755533562094
0.0644467524345384 -1.174750030040741 0.2448207322190252
0.2478580269687325 -0.2594922140392803 1.3017499446868896
0.2639274231146395 -1.180781929663293 1.3017499446868896
0.3259484679533017 -0.021930196770796995 1.9152114381690577
1.2227554885950667 -0.9192126628048974 1.2065000087022781
0.656428230648082 -0.036604528816582965 1.2065000087022784
0.8663569167594054 -0.6022576455817767 1.3017499446868896
0.22633591268177394 -0.12070152274748897 2.35851151146983
0.012435846589305286 -0.13113482957995531 2.3911461754848538
0.5122625697832129 -0.05084979918916033 1.206500008702278
1.1861030920665045 -0.025658080953411606 2.3520799785606505
0.009341252826931433 -1.174750030040741 0.8765739035398157
0.11116931778035327 -0.5651290114285566 1.2065000087022781
1.2720425813486658 -0.14009315104438602 2.0686466342982706
0.34547094290338914 -0.18097497365909002 1.3017499446868894
0.4519044800200964 -1.1458366482017526 1.2065000087022781
0.5626288856467482 -0.02150779970865619 1.9232711577750932
1.3662221702579997 -0.4807696891216546 1.2065000087022781
0.06554653369412368 -0.48689753600066693 1.2065000087022781
0.6117999767420664 -1.2232284239422155 1.3017499446868896
0.10811997253121973 -0.6174362871086594 1.2065000087022781
0.46171023087567387 -1.3017499446868896 1.148005706403421
0.1269999984651804 -0.3590817801856805 0.9217356131954535
1.0823860413969897 -0.5539231856806219 1.3017499446868896
0.8117866158772434 -1.4011806225332317 1.3017499446868896
0.22159849905303958 -0.7205715277268645 1.206500008702278
0.23668659123668198 -0.9702054662145544 1.2065000087022784
1.396999955177307 -0.12767865856196448 2.4667276190923064
0.7969299864034562 -0.12228711570706714 1.8202568519983078
0.14611488224261002 -1.3334999978542328 0.15092720449475233
0.12154871535940241 -1.3334999978542328 0.3554296368846309
1.3073698400070988 -1.3334999978542328 0.8365097840686814
0.09801219233141933 -0.1587500050663948 0.4363056423271739
-0.007748005306352076 -0.2320276822645737 1.2065000087022781
0.9910306347725626 -0.7741103227825419 1.3017499446868896
1.1074046320696918 -0.02038746889962615 2.452648043808087
0.7442571630729231 -0.11112499982118607 1.0223976860831523
0.9637526566310628 -0.2737822143321158 1.3017499446868896
0.8273840525039705 -0.015874999808147546 1.1971018496568697
1.3969999551773071 -0.02073419518480967 0.05911952906992327
-5.066400077247124e-09 -0.0760857645199262 1.5412133929400822
0.1269999984651804 -0.6623798037292081 1.1482144829629657
0.5878181141696402 -0.8175578472475278 1.3017499446868896
0.6878338890870646 -0.7535392086685964 1.2065000087022781
0.051757406116508885 0.0 2.421946245752037
0.0043492861774082955 -0.13578783364211422 2.223638045625515
0.23864448825441414 -0.5924751978160492 1.3017499446868896
0.7119400637600877 -1.4128750562667847 1.2220561117703719
0.1269999984651804 -0.7917947841828494 0.9520785397134736
0.7630427644246361 -0.5279778907353784 1.2065000087022781
1.4605000615119934 -0.426479126025667 1.224529713878587
0.504890030272689 -0.030812156140938903 2.538284441394281
0.08045404987001457 -0.14851120378207583 1.7655967653726334
0.7145009713219596 -0.11112499982118607 1.1806620594909587
1.2636153972134112 -1.3334999978542328 0.8713007757468237
1.2382499873638155 -1.280229506453493 0.9828066857403215
-5.066400077247124e-09 -0.1492502860252133 1.7367841483896118
1.1498012953791472 -0.11759870856260099 2.25669400637421
1.3969999551773071 -0.11848995137396634 1.5254355090393217
1.3969999551773071 -1.3147575586152214 0.37776811711578145
1.3844566434974228 -1.3334999978542328 0.40417538373294926
1.2382499873638153 -1.258322391449516 -0.026718876611989524
-5.066400077247124e-09 -1.2616458816176293 1.0485775556805794
0.10918113381424721 -0.039957841501421246 0.0
0.2204253785500063 -0.9098747534086415 1.3017499446868896
1.2382499873638153 -0.02344897725995883 2.212610062267307
0.440033663777153 -0.015874999808147553 1.1866777972098357
1.374523855429388 0.0 0.47844549789233604
1.1688521839972852 -0.11134323345777702 2.029076065568844
0.7395350082320562 -0.17600980989008821 1.2065000087022781
0.1587500050663948 -0.07058912950551333 0.5438118699511265
0.15875000506639478 -0.010054624377512584 0.005572506297346826
1.2382499873638153 -0.11288260265780183 1.670057746330829
-5.066400077247124e-09 -0.12740757699680244 1.3917229414001375
1.4392091280494208 -1.1253192047774405 1.3017499446868896
0.6118657278676058 -1.3017499446868896 1.0116224012856898
1.3167235168819107 -0.9202495667738653 1.2065000087022781
1.1981736706903177 -1.089379310585613 1.3017499446868896
0.7356439887629246 -0.05805826146672308 1.7455735959464682
0.3480606944744799 -0.11844596304843547 1.8935495336179287
0.07028487237699152 -1.1747500300407412 1.0324235793768282
0.7463148540824304 -0.024296644636465213 2.378057420071368
1.3829235208533341 -1.1747500300407407 0.06726812796517831
0.5945318352699719 -0.48902821872134566 1.2065000087022781
0.14065379887168253 0.0 1.4172349742010037
0.14116489573992305 -1.3334999978542328 0.9495761264375755
0.1587500050663948 -1.2714509904461837 0.44804911892441734
0.02657976390706387 -1.1747500300407412 1.127981601646333
1.3969999551773071 -0.13010776632465468 1.770837455166646
0.8380908805701752 -1.2065000087022781 0.9277478642421128
1.308237016985694 -1.3334999978542328 0.9238514298970801
1.3969999551773071 -0.12411077500160732 1.7963663156068526
0.5947775188105379 -0.05528761683317889 1.3017499446868896
0.04720454121364376 -1.2767631007412024 1.2065000087022781
1.2686906966817726 0.0 0.16985696613202378
1.2042429937105665 -0.9558842176034819 1.2065000087022781
0.8891551582051629 -1.3017499446868896 1.1951684827089595
1.239172679789554 -0.3571751230495763 1.3017499446868896
1.433015100525973 -0.315414921119685 1.2065000087022781
1.1486052492510161 -0.12453093357921491 1.3017499446868896
0.22356612018147995 -0.01587499980814755 0.9333708066236529
1.1610137416254502 -0.35798222079936 1.206500008702278
1.3627537460097936 -0.23085892918242476 1.2065000087022781
0.31725939317074214 -0.20422816107687564 1.2065000087022781
0.6227394586601562 -0.6949337544824963 1.3017499446868896
1.209128882534689 -1.2065000087022781 1.1309425085346603
0.1310940801565607 -1.324644486950539 -0.0634999992325902
0.6470675167952655 -0.11112499982118607 1.121148465957495
1.2382499873638153 -1.2689704021973984 0.9058526899050477
1.3969999551773071 -0.059588037262031136 2.4930306767085684
0.7026259162386982 -0.01587499980814755 0.9419542069151774
0.0317499996162951 -0.9709387940675435 1.0224107331300234
0.0747109269904705 -0.6248046070155601 1.2065000087022781
0.8066392414209157 -1.074113335559659 1.2065000087022781
0.910109989818618 -0.015874999808147546 1.2564496556881557
1.347239253439574 -0.1587500050663948 1.392668986090134
0.9916191644809416 -0.868996381985999 1.3017499446868896
0.11407272784706067 -0.15875000506639483 1.1758166035278186
1.190471153826655 -0.10930937083902978 2.0343982409999617
0.59266605789442 -0.4403784553951571 1.3017499446868896
0.14706094030404002 -0.605049267940972 1.2065000087022781
1.2700000405311587 -0.34593666751325164 1.065835629340638
1.0466692460242633 -0.0953059133669189 1.3017499446868896
1.365250051021576 -0.5343695047397551 1.0099727497989355
0.9560950335058094 -1.3017499446868896 0.9839011574054324
0.08501716960045981 -0.8650923270650536 0.9207499772310257
1.2470457588928294 -0.1587500050663948 1.02466612524118
1.3969999551773071 -0.06516836766977299 2.272892356499652
0.3462896610481809 -0.018292288146118347 1.9846260390156765
1.2828869688678055 -0.1587500050663948 0.05964244932129738
1.3903192615346163 -1.3992638167300384 1.28213348328708
0.2837828408153971 -1.2065000087022781 1.1848100372397863
0.9887969383662578 -0.10554098271428297 2.0342007522365897
-5.066400077247124e-09 -0.08659953178306698 0.6915567507297662
0.4508193799024385 -0.027147744939992204 1.3017499446868896
1.2909733574176687 -0.13059805968902227 2.410469889669035
1.250869765393996 -0.13844773778355363 2.1278815058964486
0.18639217497996186 -1.3262343620455939 1.3017499446868896
1.063896872172038 -0.027860321456797975 1.802059272868095
0.1587500050663948 -1.3274004866810298 0.8156764132808794
0.07465236449420558 -0.1587500050663948 0.21161167563503055
-5.066400077247124e-09 -1.208255418803459 0.7206846266497338
0.7448529864596148 -0.06985183367617986 1.2065000087022781
0.6887248800885459 -1.3017499446868896 1.08577988318975
1.2787375227227906 -0.20435486416450657 1.2065000087022781
0.01733989620125307 -0.42088165962454427 1.3017499446868896
1.3209589976954408 -1.174750030040741 0.9160546690574128
0.21226041328043638 -0.12098312246208472 1.7488712798824047
-5.066400077247124e-09 -1.2564694076204748 -0.05454736441156176
1.278325852591867 -1.1478039846853023 1.2065000087022781
1.3969999551773071 -0.1350567304864628 1.4385444092314477
0.6410576556528046 -0.2886179677480913 1.3017499446868896
1.2866665241174005 -0.6831606907572306 1.3017499446868896
0.0317499996162951 -0.7495316948466384 0.945084474328019
0.27359687069061867 -1.3017499446868896 1.1441236059240123
0.023559145806169562 -1.2874259122180542 1.2065000087022781
0.10382607155073348 -0.3457929496756086 1.3017499446868896
1.3045050787848254 -1.3334999978542328 0.20035354128624888
0.0317499996162951 -0.2238973104439693 0.9826847685035551
0.4295363292552248 -0.03443569061062715 2.2523355772580245
0.1587500050663948 -0.0893887558971204 1.105822862257086
1.1515892606820992 -0.3664741454541621 1.2065000087022781
0.7240500186740981 -0.019597014510606657 2.4677306315149434
0.8492590620611294 -1.0827764996685565 1.3017499446868896
0.5464348321888001 -0.017947180115762008 1.9912110136941608
1.2601916671604807 0.0 2.1717066153777225
1.356771442307394 -0.32198342953843473 0.9207499772310257
0.08858009886311285 -1.1238157149237988 1.2065000087022781
0.06042335346971274 0.0 2.1463402975073045
1.2382499873638153 -0.10417271876583767 1.2941672475942307
1.2520732695559176 -1.3334999978542328 0.2790455435883216
1.1342315170989317 -0.2727225837387976 1.3017499446868894
0.05718030612641193 -0.14466331738901936 1.9041206619782662
1.1378332475981376 -0.402262099016512 1.3017499446868896
0.013189441259532673 -1.3334999978542328 1.0052965532560327
0.8522418395781828 -0.11666101589209048 1.927607946616397
1.2732227897418504 -0.1587500050663948 0.38432147658664434
0.8418068786940159 -0.3295978301714361 1.2065000087022781
-5.066400077247124e-09 -1.2544771033340751 0.7080696472633348
-5.066400077247124e-09 -0.04877549478633965 0.3100626271040049
1.4177257854798158 -0.7711578741757853 1.3017499446868896
0.1587500050663948 -0.14411836936668898 0.862977965582359
1.365250051021576 -1.012405911675015 1.0577760924604211
1.238249987363815 -1.2081763753633614 0.27976401501212067
0.7058821543693823 -1.0500042419206603 1.2065000087022781
1.2201687948488797 -0.37809803665144837 1.2065000087022781
0.7576874727167362 -0.16684945214956037 1.2065000087022781
-5.066400077247124e-09 -0.03741517123555245 1.8424848263386133
0.5378335510405506 -0.1875100294941115 1.2065000087022781
0.4251480660063503 -0.01587499980814755 1.2508197331672555
0.9043471615163022 -0.2077575927375645 1.3017499446868896
1.365250051021576 -0.502826169226744 1.0075089630109142
1.2700342181712219 -0.6798371745123922 0.9207499772310257
1.2382499873638153 -1.2805412947650257 0.5695006131364109
1.1317059430542156 -1.2856760911205822 1.2065000087022781
0.28241118638014384 -0.11112499982118607 1.076839007456131
0.14424077832607682 -0.1587500050663948 0.6462338410643359
0.4477760278650561 -0.028337446604054906 1.7929552916888953
0.1587500050663948 -1.2428580656098085 1.007181654702098
1.0930809418397065 -1.3017499446868896 0.9283444985427949
1.365250051021576 -0.8023081650276831 1.1387155753769838
0.1587500050663948 -1.2906860624030219 0.1170354244605383
1.0324575592978193 -0.11112499982118607 1.0202360432678537
1.30959224570157 0.0 0.7823533708381941
0.15875000506639483 -1.2855574528965783 1.1643347606594
0.4295807433408383 -0.07162165645493491 0.9207499772310257
1.000504149401111 -0.019364113674800124 1.9641746343965645
1.340923579079637 -0.1587500050663948 1.206444845565333
-0.05750104899286992 -0.7011395684310662 1.3017499446868896
1.2829981695493917 -1.174750030040741 0.18818325461163324
0.23575425849241877 -0.11112499982118607 1.164544170163769
0.1587500050663948 -0.12270366473246629 1.9272088365150009
0.05536668753719203 -1.174750030040741 0.5102720979479967
0.0317499996162951 -0.6429255734975012 1.0016036832290507
0.935838906720732 -0.01587499980814755 1.0476665678606114
0.4315355542529713 -0.9062998961418789 1.2065000087022781
1.336685379835287 -0.143890054764664 1.9319581137332076
0.2624762193012288 -0.8202523154693453 1.2065000087022781
1.2700000405311584 -0.4133891100820667 1.00715518268658
0.6194218352230085 -0.12011223553675712 1.8617555410767428
1.2700000405311584 -0.8658017113584768 1.1702551451197085
0.8237407800865716 -0.7035553540548701 1.2065000087022781
1.238249987363815 -0.09977316449620058 1.9018886270069704
0.1587500050663948 -0.07161599215667504 1.9154641692259395
0.32372356460653423 -1.3017499446868896 0.9829979530340538
1.2700000405311584 -1.1564328817100544 1.2018882159874058
0.0349752232509024 0.0 2.471890143690569
0.8882232316078822 -1.3459695487847854 1.3017499446868896
0.11055382107765854 -0.6082343486846635 0.9207499772310257
0.1587500050663948 -0.11361918773850162 0.007993952535840437
0.12453414462946162 0.0 1.812939749790595
0.1269999984651804 -0.2585345543949314 1.0620216714980284
0.10825263093060739 -0.23357009416737928 1.2065000087022781
1.3969999551773074 -1.2212365671435796 1.0832647574437408
1.2637271626829296 -1.029835333720943 1.3017499446868896
0.1587500050663948 -1.2094784367748763 0.18481781806000636
0.1269999984651804 -0.7040283075162137 0.9289963337547268
0.14684740409759267 -0.1587500050663948 1.0362649948592704
1.0809390512942252 -0.017972406514796535 2.4987296276954334
0.7546109558731341 -0.11112499982118607 0.9654345671483332
0.0964912698707458 0.0 2.400323965647316
1.365250051021576 -0.6527854756108635 1.178605056784613
1.28571500306575 -0.5970614924237007 1.2065000087022781
1.0969243283238486 -0.271488144073717 1.3017499446868896
0.794178295681141 -1.280823067916534 1.2065000087022781
1.3227546532301568 0.0 0.7452756340805955
1.2382499873638153 -0.04750333677411508 0.9780564824189119
1.365250051021576 -0.8125955438539877 1.0746676578349226
1.2949987394222537 -1.3334999978542328 0.6492561553440955
0.5135780093983031 -0.8891560877340408 1.2065000087022781
0.5868684703607816 -0.023364207523087818 2.39584916712092
0.8791603209865642 -0.032307526250692116 2.252224043865673
0.09599952752729568 -1.1747500300407407 1.057522973695246
1.1646583953004748 -1.2065000087022781 1.1247829769528508
0.15875000506639478 -1.2104594236692436 1.1866814312664977
1.2881750969728611 0.0 1.2625118695094086
1.2991080816049965 -0.9562561486344476 1.3017499446868896
0.1269999984651804 -0.24284382808054142 1.1174538318816878
0.5949629732247769 -1.0443863949229828 1.2065000087022781
0.8133142276184411 -0.10243888462447404 2.0340381815312014
1.2860203455263244 -1.2084506938677668 -0.06349999923259018
1.2641746644699892 0.0 0.7371193908629236
1.1180644389774934 -1.2065000087022781 1.1386734116387383
0.6978713354306456 -0.04377315233727329 1.3017499446868896
1.2700000405311584 -0.4517041680759697 0.9532390619177629
0.1269999984651804 -0.7477282191888319 1.1963766495046904
0.28236656129036436 -0.12065951694551776 2.3593130203250254
1.3387841527585367 0.0 2.5100459101884773
1.2753434604244296 -0.1587500050663948 0.7460884914919813
1.2382499873638153 -0.05363344971516249 2.531304875339302
0.666998774130235 -0.02408085078120281 1.874175006226052
1.2382499873638153 -0.10901849558335894 1.2279359358367956
0.4319288602193384 -0.37393388156985063 1.206500008702278
0.1587500050663948 -0.08740530757859542 1.7753806900971618
0.8247820573768274 -0.1219286750483631 1.8270962253356013
0.15851459452551725 -0.12897919700736396 2.468748940510406
0.2852447583492809 -0.21905928761720025 1.2065000087022781
0.5922908359378003 -0.2701520315154149 1.2065000087022781
1.232470435670983 -1.4128750562667847 1.229003125440514
0.01588499538682343 -0.8001525587401286 1.2065000087022781
1.0561382995788795 -0.015874999808147546 1.2526172987714697
1.2549427097368557 0.0 1.689429304007966
1.2700000405311584 -0.4061299777498989 1.1504228341384513
1.2700000405311584 -0.75824842767447 0.9883856181515822
0.03174999961629509 -0.5584059984175214 0.9483860581083821
0.672716576207264 -0.02302526384053889 1.8943165638363844
0.04518556155037104 0.0 1.8718718762168265
0.3050904177827443 -0.015874999808147553 1.2754322229469288
0.1256901942106835 0.0 1.5532550477269154
-5.066400077247124e-09 -0.0025784733335020103 0.7928256959185336
1.189755029232812 -0.09235304854907576 1.2065000087022781
1.1401591764296617 -0.017996024265775255 1.9902790229470977
0.07663493868613656 -0.8201179165298091 1.3017499446868896
1.0384070161538022 -1.1638691959474894 1.3017499446868896
1.0847565381161113 -0.5095856965589891 1.2065000087022781
-5.066400077247123e-09 -0.008721785648474806 0.3055702383558213
1.2753391938272105 -1.3334999978542328 0.12335501266630489
0.4997346076866943 -0.802787521783289 1.3017499446868896
0.7005925386989054 -1.3017499446868896 0.9466900210274554
0.6362454463306711 -0.11112499982118607 0.9741837996058054
0.7428264884828689 -0.5142923078422132 1.2065000087022781
1.3823880584286174 -0.17049939533744088 1.2065000087022781
1.2691670858476285 -1.174750030040741 0.9732236427402509
1.3969999551773071 -0.1298967301299046 2.384614881096006
0.4247252532369381 -0.12132675772811477 1.838581354523363
0.1587500050663948 -0.015408794558833202 1.2425284482337076
0.09825701807616924 0.0 1.4359282863520368
0.2635643994529215 -1.2065000087022781 1.2006314157024343
1.3846609961538325 -1.174750030040741 0.01853519948988125
0.16306834430232622 -0.0458312555881579 1.3017499446868896
0.7765078028977984 -1.3232369239947253 1.3017499446868896
0.634591066646637 -0.7507526750253285 1.2065000087022781
0.6143224928461443 -1.3527962395737905 1.3017499446868896
1.2700000405311584 -0.831004647420507 1.1815040505908372
1.3724197062679226 -1.3334999978542328 0.021986314353609593
-5.066400077247124e-09 -0.020057249384650564 0.014388182269086506
1.4605000615119934 -0.9625414272107804 1.2793669836598043
0.16399691981277548 -0.11275480108855648 2.51014217867569
1.3583053476469062 0.0 1.612131935699956
0.5956059225902384 -0.11112499982118607 0.996554151493258
-5.066400077247124e-09 -0.10593419990529236 1.3712182162883533
0.1587500050663948 -1.2209322149615771 -0.04089945304743943
1.2382499873638153 -0.030567480223301635 1.943014100811646
0.3693800207041169 -0.42779350388704396 1.2065000087022781
0.6323335404406905 -0.4862498058735514 1.2065000087022781
0.9959990149702387 -0.015874999808147546 1.2920360028906974
0.1587500050663948 -0.11051252054858242 1.8760344905508126
0.4643164803512737 -0.12914662409952868 1.2065000087022781
0.6376494957398906 -1.2065000087022781 0.9999215737321412
0.8855222923438527 -1.3017499446868896 0.9741466411723377
-5.066400077247124e-09 -0.06733264563261265 1.3655801339322757
1.3969999551773071 -1.215727699117108 0.910074007082239
0.32634566753202443 -1.2065000087022784 1.0239746226866382
0.9846186145023889 -1.2985000278417864 1.3017499446868896
1.2141417339112675 -0.7989692519769637 1.2065000087022781
1.2210481443322838 -0.10624027934715427 1.7480986562144127
1.007967978981804 -0.678539286338925 1.3017499446868896
1.3969999551773071 -0.001515136565522633 0.010931825715586282
1.2382499873638153 -1.321197097211479 0.05243611389361184
0.0496346374642533 -0.1587500050663948 0.5627839736773338
0.5183853944008213 -0.020895037217235686 1.9349632226794151
1.4605000615119934 -1.010407292462559 1.2746744226101745
1.3280902674941186 -1.174750030040741 -0.039417102461964636
0.168521223279014 -0.03861267126928267 2.252554485548858
0.2327976964298251 -0.536658584405414 1.3017499446868896
0.1587500050663948 -1.2503924093148924 1.0304837178913473
1.0224424898553268 -0.14818933520625016 1.3017499446868896
1.3238961380563763 0.0 0.29688151391623613
0.425960283542413 -1.1357460089779399 1.3017499446868896
1.235000425121237 -0.08725487962029038 1.7471036941802298
0.12079745586565098 0.0 2.0904389749706858
1.3969999551773071 -1.2320586605627801 0.8957830165159475
1.355325707691577 -0.13038878364246723 2.418003826608375
1.0875894012007787 -1.3017499446868896 1.101653326691464
0.8457835607708382 -0.8589834839566599 1.2065000087022781
1.3838111124341015 -0.1587500050663948 0.09660496148527259
1.3969999551773071 -1.1970829875255646 1.1449234528612955
1.3149332195936894 -0.33349027703976764 1.3017499446868896
0.1587500050663948 -0.03117602127902958 1.1429298618896089
1.1852646941537528 -0.600123687856446 1.3017499446868896
0.0317499996162951 -0.31699640306734234 1.129594675878567
0.1587500050663948 -1.286863460579022 0.08235854158184118
0.1269999984651804 -0.6703397612449051 1.0375078364552026
0.21616215727122148 -0.43457247453487863 1.3017499446868896
0.014848397250104858 -1.1747500300407412 0.3382271371167834
0.0872007126534987 -1.174750030040741 0.06270207501607548
1.2517055062113154 -0.6968618099784042 1.2065000087022781
1.3486300767025947 -1.141662210208251 0.9207499772310257
0.4593579015330005 -0.11112499982118607 1.0522408752390109
1.3969999551773071 -0.022722440629824665 1.9286307278324264
0.4774989873064348 -0.05686395910951266 1.2065000087022784
1.180398816265158 -0.36868411645256927 1.3017499446868896
1.272292179515029 -1.174750030040741 1.0037077712975078
1.3969999551773071 -0.11682999674422136 1.445670044506202
0.8806346736221039 -1.3306818754552232 1.3017499446868896
1.0229702917974681 -1.1226404443479066 1.2065000087022784
0.8232719124068266 -0.02930803793574853 2.2824354841064705
-0.0634999992325902 -0.4906087014349346 1.2674763593561593
1.2382499873638153 -0.11235863958521206 1.5345318225455304
1.3287831752213735 -0.7611330695329409 1.2065000087022781
0.7250627978606472 -1.3456351289363853 1.3017499446868896
0.4867703108392678 -0.6911203139994816 1.3017499446868896
1.2720607444650338 -0.26795340917010646 1.3017499446868896
1.2602517422763673 -1.3334999978542328 0.03747879641157999
0.1587500050663948 -0.051287659584803996 1.5920889665852478
0.8352114226111407 -0.030828210481475854 1.2065000087022781
1.2700000405311582 -0.5744027523954077 0.9315942453995224
0.13102332414570156 -0.6585092636010523 1.2065000087022781
1.3091114838299975 -0.7057968425858365 1.3017499446868896
0.15504909760351976 -1.174750030040741 0.5246048590566267
0.08642284854264928 -1.0072725119856902 1.2065000087022781
0.6976206191162451 -0.11112499982118607 0.9975153077688297
1.1832802269660974 -1.2065000087022781 1.052908557118272
1.3186868811571626 -1.2594452959853237 1.2065000087022781
1.4262594190314728 -1.0715844094933622 1.2065000087022784
0.1269999984651804 -0.8226868614181714 1.1231438502441582
1.3652500510215761 -1.1276150092067723 0.9679185271762067
0.7635945040104964 -1.217648626112347 0.9207499772310257
0.5881322289826076 -0.02534660122214768 1.8500233381402764
1.1252633922657347 -0.7524672384845238 1.3017499446868896
1.2700000405311584 -0.8701819869070022 1.0656255832387438
0.5623663322066395 -1.0354820500334359 1.3017499446868896
0.0317499996162951 -0.493459912787444 1.066683885360428
1.3969999551773071 -0.06611797439373071 1.5803688570589094
0.1587500050663948 -1.214923206768019 -0.002003024736717228
1.0758743239091397 -0.4011712845970064 1.3017499446868896
0.35550229912011655 -0.4693513114245742 1.3017499446868896
1.0509926317197191 -0.11381781727505967 1.9818587586873804
0.008127822745721821 -0.41601716532392086 1.3017499446868896
1.3652500510215761 -1.0098495395630944 1.1107148538485132
1.3898674463015073 0.0 1.2777340949233746
1.104074324626658 -0.11112499982118605 0.9521653069757758
0.6734992230800658 -0.11112499982118607 1.1825240307627456
-5.066400077247125e-09 -0.08871107928476311 0.7305015164792554
1.1242068303464539 -0.01606228582266423 2.535176465450997
0.1269999984651804 -0.8382186721643664 1.0751149498375936
0.326584408678624 -1.2065000087022781 1.192293259619588
0.1561705410509133 -1.174750030040741 1.0268563268027087
0.9616430327158534 -1.2092220266598555 0.9207499772310258
1.3326599215234318 -1.0910841597367857 1.2065000087022781
1.0463969872762926 -0.01587499980814755 1.2470761460661421
1.157412223792683 -0.04646292128180216 1.7449659225014313
1.2700000405311584 -0.8979345659642591 1.138887510024167
0.004000806822330605 -0.00493199160163998 0.0
1.3127249276443977 -0.21146790385981384 1.3017499446868896
1.2807307489434252 -0.04632718228688186 0.0
-5.066400077247124e-09 -0.12902539923382608 0.26096185659039883
0.21417241823672306 -0.02843305359110272 1.791131023536844
0.8138675437993265 -1.246407933135323 1.3017499446868896
0.30743452978148145 -0.9399376536641895 1.2065000087022781
0.6853720813028742 -0.6580004241040067 1.3017499446868896
0.10077181317750791 -0.7804322708865721 0.9207499772310257
0.2836678436525649 -1.3903306505064572 1.2065000087022781
0.7555130287733386 -1.3017499446868899 1.1937936806111844
0.393569991709046 -0.11343911404222225 2.497084865962928
-0.0634999992325902 -0.30830395786581477 1.2947289987169062
0.12699999846518037 -0.43992066466136376 1.19961190040652
0.507549511861547 -1.2847464209953814 1.2065000087022781
1.3839201768438176 -1.174750030040741 0.5717646899319294
0.031749999616295106 -0.2503607203772237 1.0624935113734972
-5.066400077247124e-09 -0.03470271948049449 1.1033428555728066
0.2713801556534299 -0.06460869558263387 0.9207499772310257
0.061971308856643564 -0.1587500050663948 1.2331436330741032
1.2382499873638153 -0.10990240556184526 1.3163846642412866
1.3969999551773071 -0.023762356687907927 0.10015431013049536
0.2111211870256654 -0.6332646228351207 1.3017499446868896
0.785051149415714 -0.24404671237043568 1.3017499446868896
0.9183946130906175 -0.8473515907639282 1.2065000087022781
1.1024951297079486 -0.01587499980814755 1.1727289099138378
1.4605000615119934 -1.0633726075885743 1.2685214309746433
0.8065680284611978 -0.02649155830524533 2.3361764736458324
0.2672837390126071 -0.4890257549768404 1.3017499446868896
1.238249987363815 -0.08342558624274496 0.8567311904904173
0.1587500050663948 -1.2224738322676056 0.4049712404683143
0.6234250797470049 -1.1869905241812784 1.2065000087022781
1.3969999551773071 -0.04248335589015932 0.07159116286248762
0.02074622451296053 -1.1747500300407407 0.1837975706297837
1.3656446650843863 -0.14084966496410017 2.0414121358514574
1.0297326549839674 -0.11112499982118607 1.002671748830837
0.23414263199672006 -0.11112499982118607 1.0574418103498593
-0.04726157531304216 -0.452077419372081 1.3017499446868896
0.08008250920450286 -0.7905975722961834 1.2065000087022781
