2.1024313107169093 0.3950180426433691 0.24370372160703946
-2.992783368396715 -1.5214311863588972 -0.2539999969303608
0.7514394765448185 -0.45144644973749526 0.9056655836112321
0.6465971934959113 0.5712839159972873 0.5486967966366084
1.9793265183114044 2.1133445311659136 -0.2539999969303608
3.5659081865376847 1.1311489312289325 -0.25399999693036085
0.15583294154688 2.3429209468631758 -0.2539999969303608
0.033529730564778 -1.056680800619059 -0.25399999693036074
2.8415814244555513 -1.768047765255118 -0.07279593205656676
-1.21933526459455 -0.14834782605939412 1.4343779613171128
1.1548666230242413 0.23878489095284408 0.9695649892091751
2.3505475175993586 2.23536798675674 -1.4817587448726728e-16
1.293517310076617 -0.14535452350826497 0.8920634009305889
-3.916836811618451 -0.7930563948145343 -1.3178926709071877e-16
2.2253881464188114 -0.9938070630148771 0.5553510040044785
0.7141021838386669 1.411380022764206 0.04939539623518167
1.0292558669360619 1.5074656077359676 -1.2916641720332598e-17
2.3308837748432674 0.19912021492606574 0.44632498174905777
-1.724087077682948 -2.349985431500995 -0.2539999969303608
-1.1885519594186325 -1.3184964874618732 0.16205775248897508
2.107656447184752 2.6963109109162997 -1.5731701913871314e-16
2.770896961319499 -1.4017437215661341 -9.526873173509923e-17
2.62362445181483 -0.9003653587407391 -0.2539999969303608
-0.8487206507638008 -0.048719241841627674 0.8546342572553577
2.9982979019464033 1.819592835188567 -1.4946119881743489e-16
-3.343882927188017 -2.095276334319722 -0.1299332954725946
0.5025907592891882 -1.1796273758450044 0.4007907086416012
2.9965115376357163 0.25204309139617936 -0.2539999969303608
-1.3207842676197683 2.2567083424161707 -6.870918596466501e-17
-3.567925319450384 0.8541976295134611 -1.7607990974773785e-16
0.23407189796298353 -0.766254813371835 0.7620000094175339
1.1746497988425348 0.05261706697357829 1.3833740878913192
-0.43419664975235917 -1.121557527734192 0.48259999603033066
2.310181681632491 0.2087185161763007 0.5553510040044785
3.1948816806687046 0.04213843812507098 -0.2539999969303608
3.095775034230206 0.553184857471387 -0.2539999969303608
-1.0227867240367141 2.166871696533848 -0.25399999693036074
-1.9017857909199885 1.0612464565073443 -0.2539999969303608
-1.799947428557709 1.4308053087822603 -0.2539999969303608
-0.10337232776218334 2.694747687698586 -0.2539999969303608
2.6020981420310267 -1.440175243570983 -8.104659887712116e-17
-1.8181389044264826 -3.2389237318547526 -0.07655164862695968
1.5418168976343296 0.8888315005737948 0.04055186361515978
-2.388834529489041 0.6709535689758268 0.08878654589088672
2.34206255869241 2.3770718356908667 -0.2539999969303608
0.010610769111676771 -2.1457564951227943 -0.025400000158697367
2.140030482603329 -0.23978629614191424 0.2539999969303608
-1.6916137151767374 1.92643955514874 -4.399290942059221e-17
1.5636624460196547 0.8600044053963262 -4.4788691113087225e-19
2.0460395165169563 -0.4745170303713919 0.25399999693036074
-3.1867809962499423 -0.14203443627128898 -6.880695587561677e-17
-1.6977272987533978 -0.4120423705725629 0.5437239948263678
-2.6533555441487087 -0.09767839457892263 -5.153040824768925e-18
0.7100983530560692 -3.204521237961973 -0.2539999969303608
-0.7129531108854339 -0.7009830633762657 0.7620000094175339
-1.2689177159222929 -1.7096791027108345 -0.2539999969303608
-2.197854901140624 -2.159051126728438 -9.70735703816588e-17
-0.21311490797336208 2.98063998571922 -0.2539999969303608
-3.5518940103284042 -1.7262912452687451 -0.2539999969303608
2.4230573056658464 1.6311197606310057 -9.809601498128263e-17
-0.9296597091818295 0.7043141868216617 -0.25399999693036074
2.649960164673087 2.17423498237956 -1.6772738583748855e-16
0.5835478514398431 2.486969630402583 -1.1823499424311e-16
-3.14832791802919 1.1051322354039117 -1.0606191761442963e-16
0.7355984299445593 -2.878136044191211 -0.2539999969303608
-0.4103656312068299 -3.0315142647458373 -1.9918290945157585e-16
-0.212351585041637 -0.19625284467988025 0.9905999898910522
-2.5067695533067207 -2.1654874992586386 -0.2539999969303608
1.1275262381551774 1.7979636909719998 -4.0698947903878935e-17
-2.099573342088132 -1.0753294699765616 -0.2539999969303608
2.6139120232111916 -0.0946553909041907 -0.2539999969303608
1.5625486576211483 -2.258331841663244 -5.273378386567672e-17
-1.333230580503633 0.2589181193420025 1.2536192317148886
2.9368304857158893 2.3491158688660994 -0.2539999969303608
3.195823069347628 -1.35307628595015 -1.2960187854394325e-16
2.4930970985186733 -0.05323248163712047 0.2539999969303608
-1.2093241531881707 1.0992622357349198 -0.2539999969303608
1.7909008007669371 0.9887336851863882 -0.2539999969303608
1.402143681683656 -1.6774948251599986 -0.2539999969303608
-3.661193272568606 1.0475938479432576 -0.20861277554871843
4.08660556662332 -0.48462717486950957 -0.11047630930128494
-0.2023242884003064 -0.9720213817205392 0.5743986722056198
-3.5119731354729327 -1.866501258179977 -0.2539999969303608
-3.7762171960699464 -0.5849397829684752 -1.1283348918370884e-16
4.0049099971586415 -0.633088535189422 -0.2539999969303608
1.3522164956982554 1.721190822384064 -0.2539999969303608
2.1082148832091168 -1.6984363433643812 -6.803607999879606e-17
1.7284275155405733 2.352621362330081 -1.103098191402346e-16
-0.022142916846372672 -0.14997773312306145 -0.2539999969303608
-3.6332322190969357 0.4078298612087965 -0.2539999969303608
2.4530165231932592 -0.4816841067273644 0.2539999969303608
2.2485569081096832 -0.6107039537682954 0.2539999969303608
-2.592837500469275 -0.43144771289303746 -1.9073371915037542e-17
-2.8499449116261673 -1.8956710284727336 -0.2539999969303608
-0.4794990616935807 0.8512701752527257 -0.2539999969303608
3.3512178850861196 1.1749239902598954 -1.3590384972625402e-16
2.2814689145958447 -2.0909483447794592 -0.248511725186938
-1.679872507952841 -0.16019697798389754 0.7620000094175339
-1.113372054439259 0.05070285562449403 0.9024395205285878
-0.6449487772155607 2.066783765961518 -5.616008829527609e-17
-3.0704360639607406 0.3359869041706595 -0.2539999969303608
-0.5794648991541427 0.15640514641434927 0.7620000094175339
2.0497844424669736 2.0566777858412246 -7.782636827684551e-17
2.793924529248259 2.0771349636873055 -1.567693858181139e-16
1.0501884370118741 -1.2708554768512759 -0.2539999969303608
1.9929483645751964 -1.9174626067491203 -0.25399999693036074
0.5583446280245348 -0.33195995831696823 1.0159999877214432
1.7737363371923505 -0.9135294659251483 -0.2539999969303608
-3.058413023367597 -1.9765664353316723 -0.25399999693036085
3.6732667333895526 0.28187448443133206 -1.2594360619560022e-16
-0.9466934704046682 0.4979309037725833 0.9731086117397991
2.1955410550171535 -0.9993669506796139 0.5553510040044785
2.324290713616835 -1.2561929974516857 -5.740286608843531e-18
1.403339496275446 1.4800331242080558 -2.7903903088438664e-17
-2.471985856886017 -0.888013647923097 -0.2539999969303608
2.7822771220738645 -1.6095599264112102 -1.3673202632698011e-16
1.113557737846752 -0.20023354184458114 0.7620000094175339
1.270458958238334 1.7995814041054707 -0.25399999693036074
-0.662803410927306 -2.652740878325484 0.0
1.3124105151822745 -0.21409586423405297 1.1128396757970684
2.9830492429343662 -0.8674665663334578 -0.2539999969303608
-3.321442149361456 0.5286162741042064 -0.2539999969303608
-1.8762625639109676 -1.611780562807753 -0.2539999969303608
-0.11294982794110127 3.0602857927575315 -0.12217994105194063
-1.631992613306878 -0.2075041508375959 -0.2539999969303608
0.23987779787904417 -0.9416487059769187 0.7286207580642419
-0.31997167218329686 -0.05770791465624675 -0.2539999969303608
2.5303292896755303 -0.8224453713788559 0.2539999969303608
3.5655345980854913 1.0201643001530143 -1.6308111797723307e-16
3.7270945121697467 1.0064537411262167 -0.15180894013575474
0.7763689644969795 -2.1170362007912114 0.0
-1.3746306730999862 2.9910470898657926 -0.2539999969303608
2.5338046407113204 0.10213129388330565 0.09316406199870551
-4.092890295372539 -0.10090972379558903 -0.13327941428919218
-2.3786148288807865 1.7262836897340306 -0.2539999969303608
0.3549464191542278 2.719260855643789 -0.1177906069903688
0.09984824134214428 1.2763777711720334 0.2539999969303608
1.5586690007890076 -2.6846799296142834 -0.10462607398667613
0.08815613163932945 -1.9640401049103684 -0.2539999969303608
2.8245904558450508 -0.9284107183901933 -0.2539999969303608
-1.6684359352010074 -1.9850533931727767 -0.00311536482039644
2.0225822286931083 -0.067126962763638 0.2539999969303608
-1.502184269276826 1.5259963627114084 -1.2458543236325165e-17
1.137085186289177 -1.9185489712296222 -0.2539999969303608
-2.708747983596837 -0.6832029889202289 -3.8412030553380535e-17
0.8174490360275454 -0.7843478379315096 0.7620000094175339
-0.16439371264814204 0.9981076931832678 0.5079999938607216
2.389962343988251 2.709684886703384 -1.4792639110899087e-16
-0.8353818519234537 1.1439485209731113 -0.2539999969303608
-0.901371385866192 -0.4369702496091255 1.1260834889578701
0.41994209732543397 1.1209201188419178 -0.2539999969303608
0.9907203984925708 0.9350550174713135 0.32261017482551346
-3.69455879088442 -0.5854501340824352 -1.3608187097077913e-16
-2.04890174897211 -2.212298830416746 -5.936130177609033e-17
1.2730040031235932 -2.939186977139094 -0.24483540974133813
0.8227677927713053 2.0290079161182546 -9.980333462898468e-17
1.2946336491685309 -1.9251245226313363 -0.2539999969303608
1.7709030794408314 1.7028838328987606 -5.2082936892618994e-17
1.8203144342147428 2.2781394827135792 -1.054265151998707e-16
-2.0037783447094917 2.1162980694881206 -0.2539999969303608
-4.204836077857114 -0.9645502947717661 -1.8288373791351149e-16
-1.870892557036178 2.7120521085299965 -1.0748000047684897e-16
-3.6860064215914794 -0.6763266992865853 -0.2539999969303608
-0.28721392938846224 1.7029487711015348 -0.25399999693036085
0.1302230630753737 0.7888513908070266 -0.2539999969303608
1.7191445953632003 0.34292822078567753 0.34603771238079295
0.018131140493394815 -2.819949767116354 -6.667040137460314e-17
2.1258160134452977 0.2703876344601731 -0.2539999969303608
0.7454228223010156 2.5788267585942477 -1.912168385855731e-16
1.0788205038873688 0.21662534869954503 0.7620000094175339
-1.263725033126375 2.7835073516990843 -0.2539999969303608
1.0011025124603485 -2.1732781999443764 -0.25399999693036074
1.1401052769933488 0.9334041748342959 -0.25399999693036085
0.6815882394733103 0.4044381859302755 -0.2539999969303608
0.09721204021613253 2.734493007295113 -0.2539999969303608
-0.4409124655700864 -0.9258030354976654 0.6524965617247309
0.7216598190831833 2.550833474980882 -0.25399999693036085
-0.9307236451647856 0.037454165852282006 -0.2539999969303608
-3.2967460612084283 1.0995375670064413 -0.25399999693036074
2.278104792563333 1.225637268535619 -0.2539999969303608
2.096976029970138 -1.3222678442381144 0.8343533782042073
-3.475526941995172 -0.7177067547361264 -9.410458410935791e-17
-0.9679851215103756 0.16757056476320942 0.7620000094175339
-0.439242571370819 1.9864063925089892 -5.0370530409814093e-17
-1.3546778229079723 0.7172454495262452 0.7620000094175339
-0.920082476431284 -2.502340953292758 -0.025400000158697367
2.3233024266432407 1.5135142396287677 -0.2539999969303608
-3.933779346997258 -0.08571425031097786 -0.2539999969303608
2.9612731835708335 -1.6208315866113174 -1.5699177907585072e-16
-0.6988177760042015 0.6328817728672752 -0.2539999969303608
2.157987590236922 2.3966734914447825 -0.2539999969303608
1.269474545117467 2.4325388810428805 -0.25399999693036074
0.30476349962634286 -0.3151225043392274 0.9905999898910522
-1.2882599346139167 1.0723797526945138 -0.25399999693036085
-2.0055270045203075 -0.5687191795107237 -0.2539999969303608
2.8926502793237168 1.9777607368538919 -1.2923640891327635e-16
1.004164082347092 0.05914372467057821 1.2557600438594818
-1.5511427575521917 -2.066386279818814 -0.025400000158697367
-0.963153188612021 2.0177301064668 -4.408160468644294e-17
-2.299288087841626 -2.5790956793416826 -1.110835048690667e-16
0.4914817800118765 2.1390081294809002 -0.2539999969303608
3.0895165966664973 -1.6392046338856492 -0.21073334300378038
2.2044857973221146 1.2376613235377203 -0.2539999969303608
1.2467396950814211 1.8396550035151014 -0.2539999969303608
-2.0266335814594436 -0.687508401544809 0.06304392863020837
0.5517377637730372 1.5719742027889256 -1.7658195487069955e-17
-1.6774108114977726 0.8145738439148877 0.5665643640885467
-1.881268641163876 -0.6991122066526498 -0.2539999969303608
-3.832007872427647 -1.3821594299945135 -1.3595014122682373e-16
-1.1257799714803696 -0.08124808522454369 1.1214597808197455
-1.6915599292687966 -3.1682704370103885 -0.2539999969303608
0.01989431585512163 -2.0632289470893657 -0.2539999969303608
3.135073900977673 -0.03338158753420898 -4.8955689353642914e-17
1.904688611665889 0.012183972491560514 0.7325179874897003
2.9388268696811073 2.4048286408340673 -0.06848105924549899
1.193192389191683 -0.7960185471218013 -0.2539999969303608
3.501769035554174 -1.405125764374771 -0.12117638311014359
-3.7609974116062945 -1.5333153976413922 -0.23717204898459243
-2.207090737404091 1.0159794876747485 0.16878283003648104
1.2596751113194327 1.9424892707308024 -0.2539999969303608
-2.7791659032707954 1.478663120288308 -0.25399999693036085
-3.1479893549009414 0.5175485778391397 -0.2539999969303608
0.4763983529563892 1.2168089383847203 -0.2539999969303608
2.7900146148619536 1.8518969218247894 -1.2933686416858924e-16
2.3928658743911093 -1.193632080145929 0.44632498174905777
-0.24102738925975087 -1.9275316334361374 -0.025400000158697367
2.068640415778852 2.3471743284972217 -0.25399999693036074
0.0053695525833172275 0.695181730062844 -0.25399999693036074
3.9263706591564995 -0.6185231052888752 -0.2539999969303608
-2.4405470231579347 1.4264720867719558 -6.759467638356391e-17
-3.684355180484377 0.9994259844978898 -0.15481541001204516
-1.1754268502046004 -1.7245770976083008 -0.25399999693036074
-1.4401223408668198 -0.5208164084513924 0.7620000094175339
-2.3844555632812963 -0.09532652676260855 -0.2539999969303608
-1.6639611085250308 1.5026917957228492 -0.2539999969303608
1.9871708005643598 -1.0212459654668051 0.743132149808685
-0.6616931859752718 3.1051402754419954 -1.4329924133774413e-16
-0.8960268577463194 -2.191427134043083 -0.02540000015869737
-1.7089254043606963 2.9794270129599676 -0.2539999969303608
1.503557644623156 0.4697166711762212 0.5079999938607216
-4.159307302754656 -0.37372445261749354 -0.23634136182899257
2.096650275495586 -1.407428227912989 -0.25399999693036074
2.2365408672488942 2.748731948993065 -1.902412939958474e-16
-2.5533702539531826 -2.588390603599326 -0.2539999969303608
-0.0626977577117683 -1.269543153143165 0.33919309612528514
0.46610484890156567 0.39270503406951496 0.7620000094175339
-2.8552883441880423 -2.2270579295405715 -0.2539999969303608
-2.604996587100504 -2.292402203906247 -1.3196394116287035e-16
-0.5121935976214527 -1.3742294023193802 0.16254091683434718
1.0892999445858154 -0.10491726675347786 1.1291189655583216
2.710219295436155 2.1784809126013007 -1.748367539984156e-16
-1.6995814016400348 -0.8591807502844273 0.2539999969303608
-2.21630542205061 -1.0343787254044003 -3.934061542540497e-17
-2.3122969568515392 2.2042947792762035 -1.331612711815084e-16
0.4136509362763745 2.700033336410912 -0.08561119747322703
-1.594088778461612 -0.7629601801647339 0.33201137125415303
2.667761744251853 2.123800389388915 -0.25399999693036085
1.256237376098489 0.3548390097847237 0.5079999938607215
3.5850910725030234 0.6257487589097335 -1.555173873404466e-16
-1.4924160352010465 0.21027249854703917 1.1563939054921304
-1.44173989125567 0.49804804922392226 1.0159999877214432
-2.6502759317604605 -0.45424348467224496 -0.2539999969303608
0.8461563749725736 -3.0782953318783903 -8.344391205807231e-17
1.3410748268328185 2.7697069487442194 -1.3397002837924729e-16
-1.439152280441938 2.4875156052171232 -0.2539999969303608
-2.2254894792469653 -1.7049160846606544 -7.013177868020937e-17
-0.0999243989507681 1.1589224112676149 0.5079999938607216
-2.631703795455307 -2.497744239383357 -0.2539999969303608
-0.6878477202718353 -1.6578106269338426 -0.025400000158697367
0.2145524280699836 -3.1988931236486744 -0.03563867096239373
-0.9943148640717403 0.028825883508478284 -0.2539999969303608
-3.085039636622378 0.030618266593384902 -0.2539999969303608
-1.0616835504657296 -0.4580620338862765 -0.2539999969303608
0.44966226614766963 1.3584569781206368 -0.2539999969303608
2.0711397958850677 2.9446727227597376 -1.7233979030352796e-16
-1.2491385130398638 -1.6087061865357235 0.0
2.136831066655988 1.167964446872825 -0.2539999969303608
1.3077077676907893 -0.8197378977244252 -0.2539999969303608
-2.0344267073174875 1.2733339602407128 -3.759032226602766e-19
1.7367466456263168 2.684349476969295 -1.6276954364346948e-16
3.6745331852393215 1.1244514968451897 -0.23472369941935994
1.651026257781893 0.1211555563765421 -0.2539999969303608
2.214376623201382 2.5219365403909215 -1.5070114260654262e-16
-0.9679692379655467 0.08809008300308732 0.7620000094175339
-0.26278748344728337 -2.6683135310358557 -6.467518840566386e-17
-2.9903352632700235 1.4985139770768314 -0.2539999969303608
-0.643781020240154 -1.1122378436197518 0.49188578912502234
3.6458709550052903 -0.08448575969783448 -9.693320948052169e-17
0.1746425020434753 2.7733408449335712 -0.2539999969303608
1.8504577850647173 -0.5186673788405549 0.5079999938607216
1.305431754765578 0.11465290854591893 0.7620000094175339
3.555033378199152 0.40745960247846774 -1.4709337342204343e-16
0.6627200074818385 -3.2931223418723965 -0.039301544485129396
-0.8313226876521372 -0.2858225245894936 0.9038351303855356
2.1320185514764485 0.3873856259280531 -0.2539999969303608
1.0343476893192642 1.0874778921949686 0.2539999969303608
3.2815942039545947 1.6795953961097179 -0.2539999969303608
-0.8629970213536078 0.4231160134077072 0.7925435280803992
1.0146886968346807 -0.009613049865492412 -0.25399999693036074
1.6697118139562312 -2.131211389278399 -0.25399999693036085
-4.0511199825739785 -0.9786034577457621 -0.2539999969303608
2.0567216087762317 -1.3751092004341225 0.050005259602415184
-3.3101844035748 -1.6525151935495703 -1.5455451780123461e-16
-0.44637063084540696 0.4956129953913496 0.7964171827356181
-3.7258612187853117 -1.580111882118588 -0.05193851758610703
-1.5697603426202302 -1.2726700021245985 0.25236611012928883
-1.557893679770185 0.48026838760017593 -0.2539999969303608
2.503779171791699 1.1295966519587157 -8.288867578848841e-17
-1.2164168850381671 -1.3010118684328327 -0.2539999969303608
2.7642586417808768 0.7105867893905413 -5.80750106309686e-17
-2.2119435823836238 -0.7877232784605068 -2.2897207579029402e-17
1.1737067371726746 -1.0103684220683957 -0.2539999969303608
0.30608946494782246 0.3158876022157485 -0.2539999969303608
-1.7401013315437073 -1.8895481703936456 -0.25399999693036074
-1.0532917995046696 -0.6053503502346442 0.9110174647844775
-0.9508700255932436 -0.6211926002757296 -0.2539999969303608
-2.543862556742784 -2.63857734951356 -0.25399999693036074
-0.4670188008697612 -2.5658043775116255 -0.2539999969303608
2.7596301662413634 2.2739463431488933 -0.2539999969303608
-4.019467235368225 -0.7694584546428254 -1.8058649412315027e-16
1.5793174858498045 -1.72641444606627 -0.2539999969303608
-1.876142772624183 -0.1260534949677788 0.6622081082372224
-0.2875918157844947 -0.9561647886183333 0.5841286420385525
0.32818827040411225 0.11015370827960086 -0.2539999969303608
-3.5652816214382947 1.2232516124089137 -1.5605961753394958e-16
1.5373246201628121 -2.6267285210664095 -1.7978493165957312e-16
1.4312170584236745 0.10544272179028977 1.0785900056362152
-1.4189686473692842 1.7029661825144835 -2.6394680013346982e-17
1.0200075333026934 -2.3209459372908396 -0.25399999693036085
-1.350418732381359 -2.96307003169688 -0.025400000158697367
-1.9230499863624573 -0.04498202302674176 0.5713295457707845
0.9129252482045997 0.3433881486298435 0.7620000094175339
-1.4429323313484526 1.3973791319279647 -0.2539999969303608
3.696687334671276 1.075526645876748 -0.15063924670935508
-3.9251046268345693 0.3751695447785629 -0.2539999969303608
1.7122565558331102 -0.7062194722960201 -0.2539999969303608
2.758719833903704 2.60934428993522 -2.0808025682376237e-16
-1.427048545985527 3.3314839270559418 -0.25399999693036074
0.3127470155825204 1.2465066921039618 0.2539999969303608
-1.646299958229065 0.24217143131838703 0.9486182477937942
2.2958229207988587 2.907803007800625 -0.21475449716562126
-0.788156589973654 -1.0524153975240933 0.5079999938607216
0.04279571693567184 -2.7737124266491255 -0.25399999693036074
1.5909839337956666 -1.4944540896854752 0.15343677556776472
3.6323051928955947 -0.45149503825351345 -0.2539999969303608
-2.4210679457295967 -0.24402666084446 0.25275709020981596
-3.738232052468839 0.6606610432505555 -1.5577262651994271e-16
1.4329903011404956 -0.19217087087594395 1.1637700349092486
-4.0275626565806 -0.21317889421514788 -0.2539999969303608
-0.5241641654839775 -0.8842377100161092 0.7620000094175339
2.1024915589808986 1.9925230194263595 -1.0102783011364114e-16
1.3517068507588872 2.4769741923593305 -1.0538391551573612e-16
-4.085212928579004 -0.2528309194256569 -1.5068811998832164e-16
-0.4181193674549069 0.7464753338117724 0.7620000094175339
2.8772898388052996 -1.5095196599650036 -1.2692935608372557e-16
-1.7366675505516893 -0.6734303215019771 0.2539999969303608
-0.4099090866489774 2.704456090608166 -0.2539999969303608
1.290389255051518 -0.647708783677743 -0.2539999969303608
3.4520633353108 1.1677274065690284 -0.25399999693036085
1.3554136034478348 -2.235411486965829 -0.2539999969303608
0.11623836635734108 2.859069978812003 -0.23147007710639306
1.7285464099451664 -2.5323632951486097 -0.12401360515415985
3.001279987566946 1.2566136660701654 -1.1914628082398933e-16
2.0562709214248693 -0.48315404710744475 -0.2539999969303608
2.769227761635356 0.23596889171901453 -3.0936602265118846e-17
-3.4873369620654406 0.9691087331915605 -0.2539999969303608
-1.968393674615364 -2.3747919577547036 -0.25399999693036085
0.6919250005452228 -2.1487517234200437 0.0
-2.891409947433033 -0.6266090219646298 -4.548373401421283e-17
0.06949541224844076 -0.9854707508631989 -0.2539999969303608
0.3413281965021686 -1.2160782240264802 0.4644078296537518
-2.0890355821755553 1.2020095086218228 0.05346589399274549
-1.3305588816098362 1.5206982383742809 -0.2539999969303608
1.0010723156890364 -0.045381557924116064 1.2557600438594818
2.282836165216962 0.08749188850399782 0.258936993777752
-1.1577940084686325 -2.1356774345364684 -0.25399999693036074
0.46036002189439196 -2.884405746500123 -0.025400000158697367
-2.023453646657006 -3.2072149195237873 -0.11186063622258144
2.232787900034106 0.23407662115804262 0.44632498174905777
-3.204160003896672 -0.8450945828288963 -0.25399999693036085
-1.0170101933525666 -0.5859809141225827 1.0159999877214434
1.6100036821541495 1.8934900264360661 -6.809310377707061e-17
2.1173595937755123 -1.3494954413150493 0.4443661193016948
0.8087113922448769 -0.47442176317951523 0.8873391758460893
2.400535816803546 0.6088346860259055 -3.282484350155065e-17
0.5813914539693255 -1.6497020150522088 0.0
-3.4218686981934674 0.6846571094787919 -1.477379019169019e-16
-3.6784689807077426 -0.3136393557018557 -0.2539999969303608
-1.7361138470541957 0.7480711203778058 0.7531877650754232
0.469112124646337 -1.2564574933029202 -0.2539999969303608
-2.7710645358168717 -0.9934922341531615 -7.325805971212158e-17
-0.9459557095475967 0.9523969888687134 0.6368387722997065
-0.5359205597845444 -0.08833196412693808 0.7620000094175339
0.7887012212074602 -0.2302159653568367 1.0159999877214432
0.5297151755846286 -2.7505914186820144 -0.2539999969303608
1.590579958793813 1.8250423498026225 -6.316367956380447e-17
1.2682258040986747 1.8668873387184561 -5.268292452999439e-17
-3.751058714327846 0.8535266016068564 -0.21090603749432865
2.0880992929390176 0.22932973243396004 0.6405270099639893
-0.47815345734561066 -2.870494191428621 -1.0430691638465977e-16
-2.673765670713322 0.05610814466787115 0.21220825382107567
-1.9241178990444503 0.5770411601275933 -0.2539999969303608
-3.3642665277105106 -2.0629284638787655 -1.893600931317213e-16
-3.467759401043886 -1.2334308284153241 -0.25399999693036074
0.10911008941601276 -1.69613683460418 0.0
-1.2004702918130015 -1.02650119997212 -0.2539999969303608
0.3657795028147792 -2.129647985458776 -0.025400000158697367
-2.3864971541699247 2.147783134421526 -0.25399999693036085
0.8369399874104229 0.9282463502947604 -0.2539999969303608
-1.8890053943618093 -2.576593318218499 -0.025400000158697367
-1.167328281899418 -1.5917707135196473 -0.2539999969303608
-0.9670267532088974 2.1902596827869942 -5.519618519376927e-17
1.3095903972519425 1.0642033653821938 -0.2539999969303608
-1.2520908022597435 3.3596629368739754 -1.3551342499523137e-16
-0.054517479734201166 0.8930839442565988 0.5079999938607216
1.5503440019196018 0.9899397885436778 -0.2539999969303608
-0.5445942969718887 -0.66937638513453 0.7620000094175339
-2.7707707858277515 -0.9319971311409475 -7.501141142916159e-17
-1.126655316294057 0.7317510733038033 0.7620000094175339
-0.4713508479464368 1.6830839957786248 -2.2056556455340043e-17
2.1008594399455163 -1.4664493459132821 0.5566364204328439
-2.9537023219318863 1.6515357637170094 -1.5736146693202172e-16
-0.7206958269105153 1.8877332097331643 -2.802509744864356e-17
0.563185830206519 -2.327265645922227 -0.2539999969303608
-4.107603368296904 -0.5085312675366539 -0.2539999969303608
3.5386848596132325 0.5798019822453283 -0.2539999969303608
0.389826994594582 2.3468737008028424 -1.5080275698800701e-16
0.5110762073395305 -1.5767947405164668 -0.2539999969303608
-0.7712669670581818 -0.516429256318464 0.889679332803297
2.1670492891274167 0.3119567135152657 0.2539999969303608
-0.06076158841878825 -2.1052700967118767 -0.025400000158697367
-0.8245524801142403 -2.1122601192610095 -0.25399999693036074
-2.28744508706918 -2.5254121309847544 -0.2539999969303608
-4.038499218511689 0.08733330362484872 -0.10959540151514498
-0.8032676594579068 -0.9258030354976654 0.5952264706227061
-2.6578844549803926 -1.771037763917557 -1.123925363986486e-16
1.0678895087886844 0.23199162400519321 -0.2539999969303608
2.9650743465100766 -0.6140928969672613 -6.318960884759046e-17
-1.5972577544274964 -3.094145874688636 -0.025400000158697367
-2.206241253604022 2.4407818406100237 -1.3910735681364917e-16
2.0620974620830186 -1.0321779980393235 0.6039964376041375
-2.1041898039244127 -0.5822534704250805 0.163485167071802
2.366696003501756 2.2405412845722252 -1.5216406464614266e-16
-1.465540201523778 -2.135824764929551 -0.025400000158697367
-3.9222874832309977 -0.6381325437176661 -1.1372919264296553e-16
2.4584177007571273 1.0959958901625946 -7.80486447277792e-17
0.8297394361128116 -1.6220716481173212 -0.2539999969303608
2.124030943030144 -2.2038602297234653 -0.0430153791235475
3.1974412115594015 1.1818633062586923 -1.2597520403049873e-16
2.6335299617863765 1.7621970453057227 -1.1570610511817042e-16
0.8843013316283198 -0.6163578118537705 0.7620000094175339
0.7417808814563653 -1.010140046544396 -0.2539999969303608
-3.1224380884785283 -0.2800730985649734 -4.265416838766825e-17
2.1349593762435406 1.3402160677658874 -0.2539999969303608
2.7141339704145095 0.4158301363265701 -0.2539999969303608
0.6115947435821575 -0.3970454988158644 -0.2539999969303608
2.0973764926126752 2.446768625245798 -1.553223868986776e-16
1.1059556762271583 -0.10463511259078552 0.7620000094175339
3.7422814524520875 0.3180058260625115 -1.4095664934094398e-16
-0.3738445064392658 -1.9428292221641306 -0.025400000158697367
1.6466703401981948 -0.31219304286909527 -0.2539999969303608
4.007497848988155 -0.8624147196095864 -0.21115923857065488
-0.9406395688733942 -0.49305188180519144 1.086270893121151
-0.33579327924701147 1.24617328840257 0.5079999938607217
-2.7698687585887316 -2.054872460092127 -0.2539999969303608
-1.0192818393892513 1.5325303205749234 -0.2539999969303608
2.015315741970749 -1.2383983701344603 0.3561775504365922
2.2599834676575448 1.1282535985843862 -6.440327657835763e-17
-1.164508300438484 -0.00787792814701822 1.2700000405311584
2.211386464961316 -1.9879708572306245 -1.573334394453523e-16
-1.0464308837045797 0.1449493036142792 0.7620000094175339
-1.2566344072866118 -3.0700837501762535 -0.025400000158697363
0.40192612235608605 1.0181522921891824 0.5079999938607215
-0.18826907464023163 3.1292281258977206 -0.15175537902807357
1.2216022799288035 -1.141304210849205 0.31338927531037186
-1.114244609161403 0.6327454868783133 0.8367289100571024
-2.8876175076281068 -1.936476174747391 -0.25399999693036074
-1.817910063666837 0.5051721178272262 0.762000009417534
-2.1168963534289142 -2.296716745509502 -7.522415022943646e-17
-0.8054295720092225 -0.1518475791430901 -0.2539999969303608
1.0291402994886882 0.2506280147038743 0.7620000094175339
2.550673332923965 0.06681257464903682 0.14560916105930496
-3.190181415125074 -1.3739020513902567 -0.2539999969303608
0.7515287737699307 0.349390499299423 -0.2539999969303608
-1.1115083860557984 3.4424581187321666 -0.17745205694107521
0.8164109785589951 -1.0737842760632064 0.5079999938607216
1.0944696988399811 -2.0623720947158186 -0.2539999969303608
3.0971215000060317 -1.569991945497121 -0.2539999969303608
1.9884216245734543 -0.04152472264005996 0.7325179874897003
-1.1115944089265941 0.4876977690567915 0.766445808507713
2.9991572421561106 -1.5021004322639926 -0.2539999969303608
-0.2767096412500023 -0.5481504395659926 0.8787194055154497
-1.8388232964043072 -2.9243195030840923 -0.025400000158697367
-0.8809016860611054 -0.7445663442540942 0.7620000094175338
0.9131037984809676 2.705881075619379 -0.009945951771027028
1.543762448001051 -1.8444828158669861 0.0
3.5765726038244425 -0.8808728298365549 -1.3867033166514785e-16
-0.8349976404069577 0.401563725098928 0.9141737165754729
2.8212517001366093 2.5395848986256526 -1.9102261404349525e-16
-2.8933475455077162 1.1446249741538788 -7.03935842422729e-17
-2.5694270356498166 1.077574813030019 -4.237827956312055e-17
-3.1240026763996296 -0.7681947795035269 -0.2539999969303608
3.09980135737024 -1.2484989339325738 -0.2539999969303608
-2.0954752463036597 -2.0448536781232045 -0.25399999693036085
-0.5965572585843275 -3.005480920634502 -1.3886459052728487e-16
-1.3428920099554318 0.22741819934021246 -0.2539999969303608
0.8272087102419499 2.4208797104234723 -0.2539999969303608
-0.7092536621344887 -1.152870107608714 -0.2539999969303608
-1.5215503842629554 -1.4755252708264814 -0.2539999969303608
0.043783547931785904 1.4842386746929916 0.15154417758304353
1.7198631420657033 -2.540138110287151 -0.011227348310060649
-0.6673505833848454 3.351319844862245 -0.2539999969303608
-2.951847400028808 1.7474934115997836 -1.5758684518210781e-16
0.34893403347300894 1.4569810544562651 -6.094215438749543e-18
0.2834877787551214 -2.5248834484408462 -0.025400000158697367
1.999782946989051 -1.444781072214432 0.0
-0.6957161579851106 -1.3024292072182908 -0.2539999969303608
1.7620781446567308 1.526340144853215 -0.2539999969303608
0.5304355636719461 2.102303769453204 -7.597078912707274e-17
-1.1021970637259213 1.2288658810537543 -0.25399999693036085
0.28859757281977433 -0.5991404624650079 1.0159999877214432
2.5350592676453445 2.2142593094004366 -0.25399999693036085
-0.5149627512564167 -1.5995278652789604 -0.2539999969303608
3.61031136333144 0.7014172106692169 -0.2539999969303608
1.3741480143447116 0.9567005037094054 -0.2539999969303608
3.2475342946199293 0.7454324234369349 -0.2539999969303608
-0.27290908755915383 -1.9579361569569413 -0.25399999693036085
2.712583349458474 2.655817937525927 -0.12194807524864835
2.2225610819902464 -1.788512636569328 -1.1456120199360555e-16
-0.8468272277810565 2.0434729665136198 -0.2539999969303608
-0.5264376891493803 0.1053002851448408 0.7620000094175338
-1.959586734164886 0.8377342905030216 -0.2539999969303608
-1.3582989636910918 1.176526856281966 0.3990403145125257
1.9563126596730291 -0.1486316975526136 0.5553510040044785
-1.1257799714803696 -0.18849151676817466 1.102557152577973
-2.026228800922998 2.7880748267739355 -0.25399999693036085
2.3568481628016844 0.6140783855596823 -3.1416373152477486e-17
1.2705826076078952 2.7250925166392315 -1.31264206836956e-16
-4.028518412018903 -1.2081301322353553 -1.667686500797025e-16
-2.4432009262594416 2.3111009278206525 -1.4617556049914185e-16
-0.7440353952950975 -1.769445988584478 -0.025400000158697367
-1.4684710442099536 1.300216060217016 0.2539999969303608
-1.2116978523862107 3.2547383859071495 -0.2539999969303608
-1.944446021717447 -0.8012485519995647 -1.432156077653768e-19
2.3665096311980234 2.6454168245883434 -0.2539999969303608
2.010480498791302 -1.4738379298364037 -0.2539999969303608
-2.722660508235002 -1.7309736840497436 -0.25399999693036074
-2.5686704997978187 0.19571673143635185 0.2539999969303608
-2.415218741312448 -0.26049788975542354 -5.303384771316586e-19
-1.6377921026572588 -0.2558188408334684 -0.2539999969303608
-0.45757579741472143 1.1381393544996825 -0.2539999969303608
-0.38553854044842606 -0.3986196309649165 1.0159999877214432
2.145127862942177 -0.9999770914882786 0.5994512632816922
-1.229310959507735 -1.3351922654777675 0.0
2.2945944411497194 2.016393504022313 -0.2539999969303608
-3.650314753678237 -1.448865523307187 -1.919995322971627e-16
-0.08819396065148655 -1.4738106742943176 0.08040369014073073
-3.678565603190696 -1.4243401211803923 -1.7598742912044937e-16
3.3608642632829095 1.7439477908982899 -0.16547782973966368
3.157736264684656 -0.09006145891370192 -4.85534297960812e-17
-1.336292479990195 -0.01446652680721855 1.2700000405311584
3.94149140979744 -0.9891817089925609 -0.1251699382319641
-1.8448266877427988 -3.2371471584955955 -0.1460971579654434
-0.6934652619606495 2.9285277661105837 -0.2539999969303608
3.6631421810820104 -1.0433284578515458 -0.25399999693036074
1.3684465475922192 -0.1892432347665609 1.2927303977865594
-1.0741290767999814 -0.32294284990331823 -0.2539999969303608
-2.5326280423474445 -1.6489785856249959 -0.25399999693036085
-1.8499259516438362 -2.7983061977145063 -0.2539999969303608
-2.83665880435541 -0.36477883319112525 -2.897097391520119e-17
1.1199952702559917 0.14135045972628055 0.7620000094175339
-0.6691374314457221 1.4614536521816976 0.039955214876247404
1.4706506944018496 -0.5425649527648194 0.6771293339512747
-2.6830001126130525 1.143322641488916 -0.2539999969303608
3.843181501414615 -1.121186880418292 -0.056965380511515916
0.7019318167160372 0.7997753308326484 0.5079999938607216
1.3032021984517645 -1.6191236504439477 -0.2539999969303608
-0.8715844651521374 -1.13179968490867 -0.2539999969303608
-1.472654384699644 3.2599004152699385 -0.25399999693036074
-3.7186789825018303 0.9267024958977728 -0.21534802567645717
-0.7430293155655385 -0.4063817094554681 -0.2539999969303608
-0.9779036657181212 -0.9977134883527026 -0.2539999969303608
0.617991109371153 -1.383491881856802 0.2539999969303608
-4.002785709015168 -1.1307273460653429 -0.2539999969303608
0.5218752792370291 2.4141347013476184 -0.2539999969303608
3.1200734787273876 -1.082715966691773 -1.0158608511521748e-16
3.8450431378916017 -0.28700005799545464 -0.2539999969303608
1.3828190590971048 -1.0756859476082263 -0.2539999969303608
1.0119014972972666 -2.4598341237652015 -0.025400000158697363
-1.2158817646470486 -2.698934416990164 -0.2539999969303608
1.3831638534961355 -1.5798571384176583 0.0
-2.940430809384483 0.7487285471749793 -7.052872478050514e-17
0.2641124282981221 0.23651573734706133 1.0159999877214432
1.9407348253141703 2.5815432790213104 -0.25399999693036085
-3.4678205914161313 1.1758963431021277 -1.4651006377878154e-16
2.4160449081080344 0.1421807566127994 0.2539999969303608
1.3790324082298098 -2.3177944112869424 -0.2539999969303608
3.4938398123236887 0.8431291873864444 -0.25399999693036074
-0.3004261652112346 -0.24435771817299476 0.9905999898910521
2.7964931993587605 0.3354075055655245 -4.522365749363786e-17
-2.029441723058704 -0.9338750708609572 -1.628733181926914e-17
-0.4753605211561976 0.45827405519038533 0.8392146325914189
2.4818582492611414 2.816547392120174 -0.2539999969303608
2.479466085966159 -1.9664058704606813 -0.023569063323191208
-1.831560273133467 0.5302563168991868 0.7107892327170727
3.4134861318650533 1.6500259427843 -0.14577870258150447
1.3356310547810235 0.3770895819890623 0.5079999938607216
-1.230670414292005 1.3116930277281669 -0.2539999969303608
-0.2195816715651722 1.016753628060968 -0.2539999969303608
-1.993361427599699 -2.7788673286706884 -0.2539999969303608
-2.1835587001048244 -0.6837364775930443 -0.2539999969303608
-1.6863130474771633 2.365762634892066 -0.2539999969303608
-3.6287266829267417 0.39141946025466773 -0.2539999969303608
1.3027804736175195 2.3409121209910477 -9.223820247687153e-17
-1.1257799714803696 -0.31763975196976557 1.1560520993640337
1.9962321187998677 -1.3988748105139426 0.5553510040044785
1.9331406382408192 2.0813391727265045 -0.25399999693036074
-0.7048188763091789 -2.193238321111323 -0.025400000158697367
-1.9818564874645799 0.33743122696016825 0.5079999938607216
-0.6768589704438297 -0.35263695678788 0.7620000094175339
-1.7066627697416745 -2.51938269987415 -0.025400000158697367
-0.3937591943394466 0.8325026796909969 0.7620000094175339
-2.4844565812020964 2.6646506781144126 -0.04101123105047917
-2.65826261068002 -2.52464153070836 -0.25399999693036074
-1.4917593404648446 3.190532613578706 -1.9553628255365758e-16
0.6148551551932783 -1.6470399498939516 0.043976521711262054
-0.8186349276460434 0.31291826125028227 0.7620000094175339
-0.5979610365224549 -1.1204688230426776 -0.2539999969303608
-2.3692760702594433 1.1378845985526738 -3.2780405559496535e-17
0.5277928268122771 1.032319962978363 0.5050429039305548
2.8800823121003654 2.0848250356920595 -0.25399999693036074
-3.5267001281304795 0.007489601556304255 -1.1373437207323064e-16
1.2972886031049733 2.494647699684158 -0.25399999693036074
-2.207772646729669 -3.070977859916802 -0.2539999969303608
-1.0112923145791444 3.2648068513870045 -1.756878280567357e-16
-0.7035214365423902 -2.8425559014907043 -2.7513013485184502e-17
-3.561028595442389 0.10954124547216969 -0.2539999969303608
1.606381409827625 2.8708496428029573 -1.3766007690825952e-16
3.277991720851988 -0.7678994053055316 -0.2539999969303608
-3.9653638146409436 0.3118175770314299 -0.0979909736737945
3.3100211146532805 1.6299485889183858 -0.2539999969303608
1.53602180555144 2.752495831200596 -0.2539999969303608
-0.434189509970638 2.029305893103266 -5.464091244355421e-17
-2.8362896332885716 -1.2358380295054818 -0.2539999969303608
-0.4889987927541766 2.8587705668205885 -1.409964743974779e-16
-2.800762443961392 0.3180583851936536 -0.25399999693036085
-0.4799191017519691 2.1150886441186274 -6.955281826855876e-17
-0.9229713015895282 2.9461424513724643 -0.2539999969303608
-1.7439148096308354 0.37895928469481277 0.7620000094175339
-0.7586038522937139 -1.4867172826323993 -0.2539999969303608
-1.6323098697426441 -2.146306332719565 -0.025400000158697367
0.5356446866114816 1.2541054913747969 -0.2539999969303608
-2.4849021650015 -2.2342244520154693 -0.2539999969303608
-0.6953706318055236 1.3660164219177016 0.2539999969303608
-2.456831070440408 -2.532878510414576 -0.2539999969303608
-0.8959016594241007 2.3850286808341608 -6.471371229371978e-17
-1.4601555528941423 -0.30647801664337115 1.0159999877214432
0.3383546295958703 -0.5997672229643998 0.994203662827481
-0.702275850319694 -1.1905511157285231 -0.2539999969303608
-0.33502887643088003 0.6177418299457593 0.8398570476798792
1.6123265288163777 1.3181374170550781 -0.2539999969303608
-1.002054307088454 0.17624303535788616 0.8396302561274536
0.33577728361281556 2.039444350645529 -0.2539999969303608
2.9347199967772264 -0.9453428557831389 -5.56702114647549e-17
2.3756136579695 -1.151853269785283 0.6405270099639893
-1.9925250130483891 3.0533027856173023 -0.24323408889605813
-0.42305446727936225 -0.9516174278939049 -0.2539999969303608
-0.18218694995573792 2.623754142752243 -0.2539999969303608
-0.994899386097256 -1.3417761874970748 0.1683793680604021
2.1978890078328455 0.1463796898604737 -0.2539999969303608
-3.088252219988457 0.7967034755748302 -0.2539999969303608
2.0500137140826897 2.1099126186744757 -8.113551662675812e-17
-2.1077653875579205 -0.5774008899731675 0.17477933899866305
-0.6425979532959278 0.4593448817525725 0.8563836309106634
-1.712332423137465 -0.39391259076556634 0.7269205165458557
1.598411579164728 -0.26550341634176866 -0.2539999969303608
-0.9028214451904637 -0.6495200687707783 -0.2539999969303608
3.345190745468318 0.8472402776504775 -1.325257507214569e-16
-1.3732654962933406 -1.81409603955264 0.0
0.6026546902431574 -2.6207948675699866 -0.2539999969303608
2.7244821489503046 0.22685189989830407 -0.2539999969303608
2.1995784898793165 -1.3514567833890125 0.25974487406239216
-0.07191535227551057 -2.6801441578880625 -0.2539999969303608
-0.6827845022443852 0.05536931212290846 0.7620000094175339
-0.9881419049165225 -1.0162261275922002 -0.2539999969303608
-1.5481667582584915 -1.7225407511582704 0.0
-3.7958195798647103 0.20563187846940542 -1.3201615585785683e-16
2.6097152253244267 2.2975816293440854 -1.536033957748724e-16
1.6977063803970858 -2.3639454473930224 -9.672226686384004e-17
-2.237076545299578 -1.9814134508522485 -8.770868917635367e-17
-0.8017501158409474 0.4531437035474718 -0.2539999969303608
1.7741423869815554 0.5148956476268516 -0.25399999693036085
-4.076463241282542 -0.614813906969517 -0.2539999969303608
3.8500028977650036 -0.6022169011802672 -1.6520321429032292e-16
3.506615583072672 0.6486441032899359 -1.2875405263798102e-16
-2.5683296644131737 2.2222506650037865 -0.2539999969303608
3.220740283623375 -1.5698163567290955 -0.01909608635388537
-1.0166204162745078 0.791027205852492 0.9397999942302704
-1.5661314130562742 3.059499592096826 -1.7338313714205838e-16
-3.1031838924930395 1.946332288710892 -1.7463427292447088e-16
-2.3373578185800192 0.782033811117286 0.011785599367139351
-2.514909241477331 -1.8038817824970104 -9.669904797956062e-17
1.6216832052970778 2.60440158521791 -0.2539999969303608
0.6438111175298329 0.6265772711237843 0.5079999938607216
2.2578437713950867 0.32249236099097217 0.16646459059806262
0.45957931012720654 2.688813113923686 -0.06189204447142406
1.5790531160317811 1.2356739486949062 -1.549086207167089e-17
1.9034751209209162 -1.884745787612792 -0.2539999969303608
0.9854432805726856 0.4932807554803843 -0.2539999969303608
-2.4351344941502626 -1.200078698004521 -6.946265239860963e-17
-0.9543721409956747 -1.346649561565389 0.009969658769841353
-1.8851662582852664 0.7385013471857665 -0.2539999969303608
1.1370480201879587 -1.0324991065987006 0.5079999938607216
-0.08189838327958213 0.7162253100959817 0.7620000094175339
0.6927470551478331 2.6474429349795265 -0.2539999969303608
-1.8196295407215346 0.6417158514924265 -0.2539999969303608
0.11952181989677238 2.856406364218924 -0.0791908244733619
2.70956893343905 -0.9426793910657677 0.23759883940448145
1.462198666487386 -1.8272181383172292 -0.2539999969303608
0.9751246042034521 -1.185110356009699 0.2539999969303608
0.09775565969649941 1.2299735738703175 -0.25399999693036085
3.8629855130049706 -1.0103951297461775 -1.521336230349309e-16
-2.7037922011402413 -2.6155076010339817 -1.5916820045454534e-16
0.653504893676114 -0.7616813788157721 -0.2539999969303608
-1.5071318285892523 1.9122820790529829 -4.287802710050266e-17
0.28469507957361717 -2.8953564115198143 -1.7409807578277484e-17
-3.2928832211945966 -1.963459716610763 -0.2539999969303608
1.6423150353236418 -1.4350079233554798 -0.2539999969303608
-1.075323433563369 1.274476836430701 0.2629710637246444
0.807653531972649 -2.307480681492863 -0.025400000158697367
-2.0787758623518893 -0.9113404590907732 -0.2539999969303608
-0.9158122078081947 0.5439867339058803 0.7620000094175339
2.13298642720666 -0.5274792948952062 -0.25399999693036085
0.15619974170153042 -0.7865650712001498 0.7620000094175339
2.9651859201868005 -1.3756336338230253 -0.2539999969303608
0.3306069680399316 -2.0664524116644283 -0.010366686194757467
-1.142448173341835 2.0346169394923646 -6.03559520800867e-17
-3.36658246052788 0.4990301030516808 -0.2539999969303608
-4.216282381466466 -0.7553529760988518 -0.13348774593519033
1.8970148944890655 -1.0851855867515507 -0.2539999969303608
3.6249738554647157 -0.29035116075897505 -0.25399999693036074
-0.33601048720351956 3.255089055148685 -0.09290744096145699
-0.21837276726324834 -1.5392042459587678 -0.25399999693036074
-0.8497914511625744 -0.19112050784781515 0.762000009417534
-3.181532995922509 0.39002741392265977 -0.2539999969303608
-1.391398289956366 -3.2143518767661927 -0.1857321610541225
1.2114927714499004 0.8844250153519438 -0.2539999969303608
2.0401053466077896 -0.14562255168960522 0.2539999969303608
2.1146049160179254 2.9421145158269466 -0.1754326109354718
1.7870120010106227 2.0538073948651316 -1.0548027957906835e-16
-2.950359399182804 -2.398788591670405 -1.6229244511561641e-16
3.837210149432953 0.7033369407750789 -0.25399999693036074
-1.1851704764705824 0.12683793822801023 1.0159999877214432
-2.0483699440956116 0.24139722934507224 0.25866441858711947
0.8904912000728827 -0.28246906091454693 -0.2539999969303608
-2.0089586210769887 -0.6708225461495538 -0.2539999969303608
-3.4626079326528414 0.5128914914207419 -0.25399999693036085
3.8038948818667153 0.6437056948372132 -0.2539999969303608
-1.7686326319565464 -0.3082308491150971 0.6209540295498419
0.9567614338987479 2.4808524497655733 -1.3519756462415533e-16
-2.9040248768125636 -2.439420363857712 -0.2539999969303608
-3.0320753342217004 -2.293168181814937 -0.2539999969303608
-1.9888979645402183 2.121827531016355 -0.2539999969303608
-3.2942728383228035 -0.5878918393827975 -6.45439801122516e-17
-1.826943199663855 -1.3743076497846478 -0.2539999969303608
-0.4184190078578641 0.06557650585544056 -0.2539999969303608
3.3135045766838855 -0.7290284532756607 -0.2539999969303608
-2.049904427846118 1.2636719531418974 0.01792046025261476
2.267391744693633 0.23440983974825358 0.45701468834426007
-1.043509989976883 0.627107339990865 0.9016517298225166
-2.0483699440956116 0.6691500453037907 0.3233283371325937
-2.9038101341371982 1.9213583187879315 -1.4698897452103103e-16
-0.6861303405472294 -2.6485497992614264 -0.025400000158697367
0.11181649228080193 -0.7184325894400935 0.9213332220880006
-3.15941686824778 0.5466345633247386 -0.2539999969303608
-1.4724964968976328 -1.2843624527533573 0.1425579754025385
1.3436057134705175 -1.0706458804733225 0.5079999938607216
2.595510966686146 -1.899590782892856 -0.10189177300520366
-1.9657760255255847 -2.4076669935514428 -0.2539999969303608
-2.7373669244746384 -1.413346539034026 -1.1005053812203225e-16
-2.862809169878424 0.03396185125599772 -2.105738506780342e-17
-3.5989535955308267 0.29626857386643163 -0.2539999969303608
-0.12084614566227558 0.33315841153050674 0.9511149699078902
2.1502192137498803 -0.1444245791962058 -0.2539999969303608
1.9741673717009895 0.7648432500617828 -2.7543363129708956e-17
-0.0646533795947931 -2.0414690008462957 -0.2539999969303608
-1.172640459844725 -0.33767875673801456 1.2700000405311584
-3.8289613235693594 -0.4610345333535571 -0.2539999969303608
-2.4534077040315423 -1.7697844011979738 -0.2539999969303608
-3.7741015340657253 0.8014514655197522 -0.1371554702222647
0.47268630235458786 1.0752958604571894 0.2539999969303608
1.6285977150485023 1.965381080831098 -0.2539999969303608
3.1007072850624033 1.4607680958203946 -1.4189122922308018e-16
0.5511138836819849 0.6874821454868383 0.5079999938607216
-0.9544060699369719 0.9778510843552854 0.5079999938607216
1.0538666273877881 -1.6320899497238714 0.12365953429951024
1.9156073051283435 -0.1069837364172694 0.7328733007362954
-2.570801358282747 -1.875263042818156 -0.25399999693036085
-3.5432514879625066 0.3186330677952841 -1.0696208412276079e-16
1.6774184973763044 2.4555669282178294 -1.315459593113479e-16
-1.156961121642425 -0.052937314814362466 1.2700000405311584
-3.585372623489482 -0.6397559510377437 -9.515198404179138e-17
3.8322816817772223 0.7466883240404867 -0.06876669859896613
0.9107391179739988 0.9350550174713135 0.28853073323348066
1.3579895318438813 0.11103486199027875 0.8833039955299851
0.514359440058428 0.15068968743240846 -0.2539999969303608
-2.757858539407935 -1.544992735243313 -0.2539999969303608
3.600231843219799 -0.8007888913876897 -1.0090731770895963e-16
-0.536552967661304 0.2899415059888252 -0.2539999969303608
