-0.6833667280989677 -0.15733668410703044 4.817320108413697
0.14063507947011045 0.171031461466845 1.0456400364637375
0.7389241169907979 -0.4778040003197786 9.683895037719822e-17
-0.2545903547054563 -0.3418771882566021 5.236895552678877
0.8145108487061075 0.5105785965201876 4.06392737776001
-0.013787065847508027 0.14443444186178328 1.0456400364637375
-0.581095769242451 0.09783471932989686 1.8056713213155215
0.20215985335221187 -0.0994650157223923 1.0456400364637375
0.6598384865518292 0.6493476592880577 0.1436414005693872
0.3947151606658334 -0.1430809176579577 4.2738282824524754e-16
0.3371010153472162 0.2905436920105943 0.9194410618975561
-0.9151059699388675 0.142837100997206 4.281772072283839
0.2908050311533939 0.9661496494900624 3.698599374242868
0.5995825393732321 0.7536215563863009 3.190523989196566
-0.8964082886404332 0.08823787269023387 4.360847155571807
0.004177110581622505 0.5308581104175707 4.7919198870658875
0.26602343077234836 0.30047377848463186 4.7919198870658875
0.0877304615270054 -0.3425281179224414 2.1046000632372053
0.023651080763524943 -0.8548164146763213 1.146373139894345e-16
-0.3957930720515648 0.4417691015331472 1.819444973470576
-0.33692256086808786 0.2298671702308278 1.1857833572318326
-0.855214284559876 0.48074770958092755 3.284103400990225
0.5521099606545788 0.6098968178533308 2.6931468525105373
0.7360522788022541 0.5087174032004911 0.1941043475232669
-0.4961285643430649 -0.09552377247134132 2.7611368972459918
-0.1610452093296237 0.42674442042606087 1.4406818441396978
-0.9999478862999922 0.04059801108296625 3.24839716055292
0.39389080965238643 0.9444794498468803 3.841969216877965
-0.007970652191648319 -0.6876051066135467 0.5283900491519469
-0.0350679647519741 0.9905681116180053 4.0458472646953245
-0.9451949427748809 0.3508723258973947 3.5336173329414415
0.1197854061002448 -0.239542975650138 3.1284248140155713
-0.6065292525906993 0.7663357384558886 3.1388345682255996
0.6875169099620836 0.6129817443787101 4.213720962920087
-0.019902573300297863 0.9445139712035353 0.11460275484613537
0.44863521354354835 -0.4278189718233058 3.346710518739415
-0.251198134418232 -0.4663695289946245 5.1584044498030615
-0.4075298161833457 -0.5907840027777812 4.900944315981563
0.6562179052448456 0.2816197993219661 3.6154304457106266
0.4571821207552692 -0.10057336869454617 0.8819823426542385
0.15802363894887533 0.9531613835849841 3.2059330727914297
-0.23104830941390236 0.730681124311304 4.770977085655203
-0.603376536362422 0.13954042464161087 1.908445810111793
-0.4294766218366435 0.8725796508129251 3.120821826155038
-0.527171881482777 0.438908542822771 4.7919198870658875
-0.4316899675303083 -0.11854445145120016 2.553658561727812
0.8482719624552959 0.06392960175399809 2.78777746251801
0.05376340123715877 -0.35642119657228044 3.4239446367088404
-0.43165149230975813 0.681102477707204 2.5463564979358875
-0.07694143787267625 -0.07354338190084829 3.2781739817418605
-0.030576369219498273 -0.5231431316396213 5.162904859801892
-0.40550837908794385 0.027798778239346896 1.2721009199931155
0.4738411479446139 -0.34709122472949483 2.370947004619772
0.8076463394289635 -0.32507106922351037 0.23259673955855004
0.41629461951576674 -0.009977983903489366 1.9354494294788227
0.23118768887065572 0.5787357192636875 0.6321081797526431
0.02903582200251261 0.9075908828037762 2.8931189379493887
-0.9408762282966865 0.4271030894491785 3.527565957690193
-0.00747924325904669 0.19010263099270494 1.0710400342941282
-0.2811476299259525 0.2985241163552025 1.2833856816114728
0.463715601584656 0.3592087397302277 1.8870946625534435
0.4613806385638047 -0.4243676012975357 3.5620950861385086
0.8841123137690965 0.21022974765855823 2.897212221048775
-0.4257322094581202 -0.45001628494888807 4.817320108413696
0.12360031753375611 0.4590778407965319 4.817320108413696
0.6913078550793621 0.4845803673964467 4.5324175709390335
0.1998220238664356 0.02377806931322251 4.817320108413696
-0.5736905242953243 0.08176128466949992 3.1254487249077423e-16
0.7015699723939031 0.12613090091986914 0.4872301045016443
-0.623763651646212 0.11372602335430135 1.958353495774638
0.12360221063768598 0.5410749680257645 0.7416410492147381
0.3116342206826653 0.32915954203698783 3.1412014113355538
0.39368609225084716 -0.534891207270599 4.999062709322532
0.452903607657808 0.0951135298266057 0.8904461421655292
0.14223258176732326 0.7423623971772906 2.373651671078801
0.5828872600565164 -0.022976421478999545 5.104225338075857
0.754250999507655 0.09685930397757173 1.8288724536604815e-16
-0.18327328487499278 0.8727227232931443 4.387932048215033
-0.8768782110624787 0.260667919394849 3.0068151645804226
-0.13112477228455519 0.7320385782033536 2.3321267719708545
-0.1545043894392885 0.9966984731224321 3.95185838288546
-0.8048054636412029 0.4643649833428739 4.273380763779083
-0.9671658955993978 0.11089193783473694 3.2393959409994477
-0.2188553373410823 0.4916711614141419 4.791919887065888
-0.16514386889395646 0.9905592098524679 3.2658714574206265
0.2780667238933814 0.07387392630471143 4.817320108413695
-0.8729891880316548 0.337454824659726 3.082386552610349
-0.4901309019572818 0.24759544411385376 1.6683460342858418
-0.5116839816174656 0.4551689058441874 0.5322283708850638
0.45551926826324163 -0.10811973095371918 4.817320108413696
-0.8241454912198941 0.4259933534220722 0.14177959594121592
0.8833928093912625 0.28149817500800633 4.193206384645111
0.8403863420431026 0.1893510247256945 2.735392695391013
-0.15976325802707844 0.6013883219496254 5.058675623942745
-0.031907715952786075 0.875220811892359 4.43621138115101
0.24136078948954517 0.12741691963217766 3.8821485889336396
0.6767172205417162 -0.04847204690982765 0.5428666156997575
-0.2124941767380622 0.9701670129263438 3.8861867620064885
-0.5059522959628655 0.48886777727275654 2.2860612260405726
-0.3286880887205269 0.4264452043376403 0.7683952635674102
-0.500145183377426 0.03390996322675619 3.839213342343078
0.15152389523162796 -0.31054614164866956 3.177605867680815
0.8084642167411521 0.12711267259575343 2.678565704096043
-0.43947226768395525 0.8984991237360357 3.420849713556339
0.5358513743568856 0.12817251936039067 4.817320108413696
-0.040105827582994746 0.8368381923285184 4.471466992576877
-0.7628163319207144 0.2551308788851448 2.5394309524597745
0.9753589635265086 0.2997464174702535 3.869016892897546
-0.19828439686697205 0.883794330303854 0.17737388172303523
0.678512584932746 0.4696152785856257 2.7006714622162304
0.9500261336232069 0.16490565532541146 4.04853739960333
0.15063208055874325 -0.08095853296207403 1.9551089975793714
0.7794691278083481 0.6428643474136392 3.6253992395555112
-0.04111141629255744 -0.6576882096227123 2.554986894385012e-16
-0.8705084774445904 0.41067109534449575 3.189295863363438
0.6879214313861284 0.5848279700272222 2.8763258837621923
0.608069468019705 -0.6589668537877327 0.19201054655222138
-0.5416956542622122 0.3421286991161288 5.033708229165096
-0.9298837619395219 -0.2320206934823997 0.09100765140485215
0.6254639338943424 0.0046160596275652025 4.7919198870658875
0.9495685544562316 0.28474340834892525 3.34856301920326
0.48017148554776024 0.45051446329965633 2.559587360351764e-16
0.8931620882313793 0.44198639634733444 3.224531681628901
0.7631246375869731 0.16511240993192455 0.37771736155077035
-0.25403638800597445 -0.2523437821857053 5.275868818105476
0.63692258026505 0.28970607917064023 3.6351815597771497
0.1446850046258335 0.32051607193935094 5.279192643277492
0.06263618195204974 -0.10994210739884963 2.0862741122296056
-0.44429342444595443 0.5948549316320971 0.4393522173437759
0.17171845349668668 0.06496352001337319 5.340315986581523
0.5427725886407622 -0.3761183481449569 3.3042765762038084
0.7579772695656732 0.4231813249438642 2.757356576221154
-0.002460429933476456 0.524693077436965 4.817320108413696
-0.31604398357520874 0.6320297813471538 4.7919198870658875
0.47657439939988766 -0.21924862372881526 0.7915275322609727
0.7367297111588749 0.17124064673349118 2.466920153514609
-0.8176135831699294 0.2685776032319477 2.7315809502312978
-0.09192620561340142 0.35672033171067863 1.0427043415445687
0.7911251618099507 0.0005817332235081936 3.436043105422735
0.5165407961764619 0.24447221575707337 3.1163143465599124
0.4957344836103811 0.03297229974744932 1.4901063794969402
-0.8346390600845938 0.07785216217485667 2.7454205838477934
-0.5083649406390067 -0.08495626914644427 5.170200608676043
0.3982541224831375 0.9207235615042051 3.9845765064942213
0.7170948454600684 -0.1355111838204476 0.4597499625530139
-0.6636513436153703 8.127384670609476e-17 2.1244059372627575
-0.0438585230118927 0.0023961692277541017 3.706780596589938
0.5577384223304395 -0.35028752582584255 3.6435369725273836
0.482678811395716 0.6772195725949187 2.72273206030928
0.6255187448535294 -0.22508663537315254 3.724745220764803
0.1968275749442425 0.27119996591238466 1.0710400342941286
-0.037476740792798495 -0.6718686906141326 0.5516053294526697
-0.7232903309086007 0.03223187450699046 4.7919198870658875
0.5089377650555695 -0.2555292714562469 1.9196528640568387
-0.5499191523064771 -0.07555405615117029 3.30076351117129e-16
-1.010535218637982 0.0903639749612069 3.3298841589145867
-0.3021035515689547 -0.29124739132891475 0.960574650385883
0.0863779569051836 0.5589479649100461 5.123389647965406
-0.4506847041280915 -0.5274047964109554 4.817320108413696
-0.3229587453300292 -0.27382189341924484 5.238600681725794
0.6820377762092718 0.3858096942881664 4.637123809335795
0.4874475849961945 0.2259014547852527 3.4329834282849936e-16
-0.22373410990655285 0.4841604093507712 4.817320108413696
0.5333879228258227 0.8028881918621047 3.1956368439928458
-0.3692068837901638 0.43094418546531904 3.215053789467021e-16
-0.9380897564830282 0.049233617770060925 3.094790971027761
0.7054155936863259 0.7157480860201555 3.9759827646748382
0.4026778123588419 0.6555218453623057 2.4206832250741583
-0.5152093496457484 0.8367845434527067 3.1619573942923376
0.6666600770920219 0.6370682282650458 3.0322685803837937
0.09444159089105955 0.5288410366286257 4.817320108413696
-0.9398938090366672 0.006612908340697429 3.096089968462797
0.4841858143343546 -0.027575737855660205 1.9567758629627403
-0.041317321721069916 0.8949639350982443 2.942287369002257
-0.7989074549118979 0.28790817740987495 2.782857507643345
-0.5389125921952628 0.010981650266385545 3.417435868291566e-16
-0.8148304427514974 0.1779547440092235 4.563730109105562
0.3377457664628041 0.5175141384196318 1.9938397373728263
0.5701115101424907 0.1906948030131536 1.8457815375550717
0.6308868054634067 0.3244354319309293 3.332693887271523
-0.42932847937749036 0.19494152670299686 1.493836495035962
0.06876554954759811 1.0111420467147751 3.322863654100074
0.9363688312473567 0.3747690145841597 3.704188644906778
0.5989900614321596 0.28735663122936767 3.6912445977752317
-0.12499582919294983 -0.49485041961175397 5.174613605158346
-0.33572891205998756 0.9313071950868248 4.049760112339525
-0.15609809530477256 0.718298759680893 4.783190676959224
-0.10155179957292372 0.5950344585448443 1.9447186555825924
0.0821242741884877 0.07128434619605191 4.7919198870658875
0.699413228797856 0.4068200948877875 4.6393945072276574
0.25127583971309 -0.16843802175551403 4.817320108413696
-0.6187026213076412 0.26480193403217805 2.1809285697315515
0.6922172123257662 0.3710009944626228 4.713688281400036
0.6317713282813692 0.6772688048962978 4.281689849178085
-0.05765938625732199 0.6826779718177306 4.7919198870658875
0.33515031890315805 0.004694192552445958 2.6534380745682773
-0.08849752300663233 0.8766515016046218 2.8932183872439703
0.4582718941330679 0.06907831413115734 4.791919887065888
-0.18492487980491937 0.9858429420598587 3.9856383752665083
0.5591227880710509 0.369102331928614 2.0804925981141875
0.45463904700341895 -0.14908045012683013 2.706773332220918
-0.2077099545394353 0.9777767664137633 3.412734054126239
0.8983047543559355 -0.22073099038283328 0.146510350905705
0.4298527286538492 0.28820027476667526 1.6507732220749083
-0.4255936328383894 -0.042728682339535626 3.3865169262663883
0.52936990925218 0.27993673400742003 2.98656992138024e-16
-0.35823750669671756 -0.08403286034976738 4.817320108413696
0.25696647196486055 0.0009540299959794556 2.4192340416473983
0.5632717628590848 -0.15715912737458992 3.817135848918094
-0.4428551899431573 0.03674966345255565 4.791919887065888
0.3488907899082013 0.12897643928539199 1.1546085161826343
0.46070334964525067 0.7063371991426666 2.6721308274976656
-0.5531999357761445 0.2983403776311212 1.938837680052135
0.2060764049099325 -0.16317803745114848 2.565561875519281
-0.1719176778052729 -0.6866333464518841 4.817320108413696
-0.23779971677850004 0.18548246968858675 4.817320108413696
0.3688008623402005 -0.10380385492716718 1.0189239025986565
0.8846443706843815 -0.3290929594799669 0.11512810437000696
0.4561138297817813 0.19680206182369508 1.5791990865717187
-0.154521999079809 -0.4099838103716047 0.9301295454684072
-0.784422211207043 0.23033796234981802 4.533128134574506
-0.3384247353847979 0.4168174726965225 1.7169588522580115
-0.8321106804891654 0.5441387846175004 4.02874202756067
-0.04778875235479687 -0.7129590349446877 4.907796546631681
0.5122376629157119 0.4737096265629264 2.1754155076461377
0.03248759863831417 0.3714568258024824 1.0357301988128687
-0.5379864848696237 0.19290959058649024 3.1826391921862406e-16
0.7189873388013905 0.24061710332350278 4.794741328180287
-0.9017932718228574 0.37159172529447326 4.113097983689078
-0.2822862086034153 0.8746209430233641 4.219450826929871
-0.5248621749356714 0.018484767550588612 1.6772956441715414
-0.6052932356032786 0.46736193032574413 4.692647042099872
0.8598877428723123 0.4699445150253761 4.09387885908404
-0.9087889617418357 0.38918152541015816 3.916403783379283
-0.5834012814763808 0.6484438923474698 4.364830304475324
-0.49793826206553543 0.4696674139199442 2.2208337592472853
0.06088753761763162 1.013494318745114 0.00022979842860080437
-0.24373347869737758 0.6808708089092217 4.7919198870658875
-0.3070345638025578 -0.45570795082263693 0.7511337396382524
-0.8113298057044704 -0.03375752304622093 0.32710025069780824
-0.3696862121871707 0.33048797821711556 1.48694275388232
-0.3814897957816511 -0.08607539590149954 3.6829151347262394
0.003987435435150572 0.10471952174892735 1.0456400364637377
-0.7687321975478354 -0.5305456343988691 0.13072547966933382
0.3997889998211058 0.6428716631793306 2.4678505488990172
-0.7269205915390174 0.31230920400556983 4.695082582965041
-0.9246027372207377 0.29476883587584496 0.07224049132840561
0.9814274556852609 -0.06421777702302432 0.05123775045000585
0.689898455260646 0.1594278602104793 2.301941104321249
0.3591444756521458 0.5415365869163189 4.817320108413696
-0.6516312874595902 0.23042811241161726 3.5744819423518708
0.24536833876855396 0.26047082550263123 1.1051258870300573
1.0338144603634956 0.0 3.657590216160896
-0.8169845209319362 0.5569555322593839 3.188398828514758
0.1793657386260019 0.00018190574965336586 2.3136540575858575
-0.4660334125118255 0.6346292319846283 4.624667836819391
0.022334234142847294 -0.32165178843343867 4.817320108413696
-0.5225098152259604 0.024597124885829866 3.5303421849618555e-16
0.010797563442896466 0.4571562721574933 4.817320108413696
-0.21075254390698844 -0.6409372414821746 4.982706100752106
0.8151032815035273 0.46893705677334907 4.147156679715808
-0.19622706568369094 0.1935010514026303 4.817320108413696
0.2362143098370081 0.3844637226594127 3.2323991130065903
-0.24907747681751885 0.9317306936678946 4.048637751849089
-0.29325702798637965 0.5797084454151347 2.01170812350877
-0.12595765907296685 0.6434515692281699 5.012277801668114
-0.7664895084369459 0.5727252762896009 3.062253840913259
-0.6328390176799003 0.020536923391654735 1.9557690061186173
-0.06292538238015513 0.9039697228106636 4.262385609587901
0.03199150249644093 0.4971684859113726 1.4948044780966496
0.1883288775234636 0.6417153104130895 2.4863246250658695e-16
0.3331899502979543 0.09156153375168861 1.0456400364637375
0.4853757871011341 0.2982837715661902 3.765636256495466
-0.7491047330073641 0.16059326062669255 2.4993797124255126
-0.6353724122808202 0.4728112392285856 2.588683231691562
0.08573229882924571 0.9352429721060374 4.151993950865098
0.28990550431280065 -0.15839612616027893 5.289559585897586
-0.6190360554223068 0.0670703447088313 2.0092299779338556
0.20193820317352676 0.3413503837470227 1.1483824030506626
0.5421826440198134 0.14089408880320328 1.7065872364407733
-0.5823769000037362 0.5461127226985492 4.590427796374427
0.08819106218729017 0.819499674706763 4.594252574575799
-0.892842339135969 0.34853622033921083 3.1707592616398084
-0.3554534843503965 -0.2865892253061204 0.90114793525255
-0.9822487961934565 0.23137578168789336 3.6825515625611773
-0.205905164485033 0.16845624922427904 1.0456400364637375
0.004289161505093347 0.40251546775552294 1.2588144498118072
-0.12935042592947654 0.4233271393858985 1.3041096178024933
0.5752625856371384 0.6900337474747326 2.9514074867771556
-0.21759691987884952 0.2552824387901411 1.0456400364637375
-0.4028605415921019 0.6575519021967281 2.4269664227190053
0.21617536675124 0.9483659312827113 4.007395632358025
0.09903146892830378 -0.35198634381538996 2.2247945122451247
-0.09448923421774949 -0.5547284052758201 3.245807848967954e-16
-0.07040084612221555 0.880817230142965 4.411958782196388
-0.9528673186050227 0.17669075484953417 0.07486429926414531
-0.4809473317999975 0.6086920785710427 2.4422282339596144
0.05390273205249019 0.2417533151593309 1.0456400364637375
-0.4107497454707875 0.6186988549610415 4.840755819787891
-0.14772562401611938 1.0245160128734156 3.6470292879532695
-0.00943614468961601 0.16251305356854068 4.7919198870658875
0.9696528803641893 0.19195973664597007 3.3256112704246146
0.007891309240621924 0.17740414200492174 5.341920181407247
0.5275500947442604 0.7570552248483213 3.034018786692436
-0.9364887070025779 0.36892302408310734 3.2821050150275837
-0.4721246306696331 0.12224481271172652 1.459187008223245
0.11437276279602074 0.4584087686729812 5.204783794248582
0.49164052517567824 0.559698053874026 4.7530028590936855
0.22526568352577364 0.17697595307103298 4.817320108413696
0.670044067940982 0.00821516776300843 4.7919198870658875
0.861443037650724 0.24320207568186697 2.849099000951238
0.2969212244944468 0.5909880337329644 2.0517688480526752
0.6155479819650762 0.2744017550392096 2.0949593708984153
0.5770746245274595 -0.09780613570469145 0.6930667693317476
0.1757011140527853 0.6448071803763356 0.5601177878740679
-0.5173975673791811 0.8209444924936418 3.1911463317340693e-17
0.5574629810147979 0.7624814680787053 4.22438270731846
0.25967551201642025 0.5857922211577753 4.817320108413696
0.44178242248887767 0.2087515844201545 4.817320108413696
-0.5896243207118192 0.6283004258949237 4.4788495429735296
0.6816319615077864 0.4281203018830649 2.632258676146189
0.9341235438973633 0.16470003436833927 3.129467867121166
-0.21347252916526788 -0.2299561731267993 4.817320108413696
0.5023180748150826 0.17014389999674365 4.817320108413696
0.07996089466769754 0.47230978957678593 0.8650202065126904
0.057948568004983735 1.0050516305850699 3.283094406809395
0.49512317892225977 -0.42622742526931523 3.4278082244236305
0.1727486052023565 0.19178782012474654 3.834786865631105
-0.19546166539104307 0.09231456871431709 1.0456400364637375
-0.2562757282991105 0.27036226298987476 1.155061823585504
-0.912374407948545 0.34277960735881374 3.1285934847323524
0.07440683371438297 -0.2633461256925926 3.719030081630128
0.5566116530418548 0.23009584940700223 3.1300185006678074
-0.3927619487551154 0.31490450315310975 5.180666381494847
-0.5784215432923747 0.41910378462651254 2.233069565241867
-0.6561975688408623 0.4661431314563769 2.542185869732747
0.21975240227867318 -0.4637993512997627 2.1298452580851626
0.4820824204867329 0.4240447702990747 3.5327667516318204
0.40976321077581673 0.8634618592623653 4.186608533463467
0.37398424523680335 -0.24215569406293141 4.817320108413696
0.6408459247869025 -0.3261189432388074 3.5439571161757906
-0.9424210417831725 0.030141358294184684 3.108519739888562
-0.40737954939923215 0.40373453632446443 1.8422319896903656
-0.8445775419641012 0.21891391298064475 2.863405763294582
0.6737552685792367 0.18740355143656462 2.271400217264047
-0.052192315693286966 -0.02459669448651472 3.6927448374353684
-0.9428417338215591 0.15082493339671021 4.188825436904859
-0.8000924862929764 0.4189206866886991 4.271663289181266
0.08681845547235081 -0.6928007294947712 0.5106480466965425
-0.039397025267474614 0.3321421631318952 4.817320108413696
-0.7547144260272587 0.27947934579794026 4.570764853573333
0.472007002028842 -0.14616571182970564 2.8616384490542006
0.6840370110981628 0.22013421245786308 3.6489856838232493
0.4761885028952387 0.7819902733643509 4.23272371827352
-0.17610471563239724 0.5778064078343086 4.7919198870658875
0.2525588599456542 -0.037508513512987104 4.817320108413696
0.5742973883500674 -0.161527025375479 0.6746931942711889
-0.7413810673938509 0.6475986861846579 3.9409101135847964
0.6246810802946132 0.7884357429836639 3.967889676823514
-0.49324605828376084 0.3061681030198535 0.700705358752123
0.43078809530410606 0.3129407381594044 3.1379286017125847
-0.8737959372314021 0.2020057157200661 0.19042916530644816
-0.24848362426952056 0.19194795154369168 1.0456400364637377
0.46058768135323025 -0.15320903590291413 2.622012608570319
0.435086922370579 0.8100082573600343 4.218600082431754
0.8595008312791835 0.5017694091811437 4.025249993153602
-0.567979228245767 -0.023179508394309194 3.899792528559025
-0.8490711644477328 0.202146517442105 4.363010148802341
-0.4081932646207941 0.3675828665562428 5.139239243357199
0.7000410550514453 0.11218013843592041 4.817320108413696
0.7627273816327476 0.03303646550378377 2.4006506348562726
-0.3016695064254731 0.6600292942576563 2.2708972022502887
-0.8102525003875805 0.1388183381548504 4.600316933108944
-0.4554324082456497 0.0971045888069973 2.5097572028692694
-0.15700290132299788 -0.07319913287169828 4.817320108413695
0.9996938271357465 0.20605027664187567 3.3761463676182157
-0.5722245248714626 0.8141670088175417 3.8708060548353975
-0.078824498925958 0.021615598661934 3.2692453502366137
-0.5028939172187331 0.5650954885347834 4.718176104055746
-0.7360421537619732 0.5197135926553847 0.1836511216482822
-0.5658346743970949 0.8190075603708119 3.3805535937274556
0.8940455161957492 0.46984187866602917 3.651837604662023
0.519978820815734 0.04918495006822592 1.576124835237576
-0.49787329821241055 0.7071392671850434 4.470010557066872
0.6181468655904222 0.22499855499127422 4.791919887065887
-0.42983108305457274 -0.015578818918626062 4.1980769720459445e-16
0.8729769016118152 -0.0708445756061686 9.984722633075354e-17
0.43979875216623754 0.30506172890789873 5.15296789282785
-0.621606275301499 -0.743807093286196 3.330233238213204e-17
0.08131142271630093 0.20649116420122768 1.0710400342941284
0.1692438441897512 -0.36643396323000665 1.9831692003496273
0.1914814340402106 0.6806377288187111 2.2078084037153283
-0.9176752463455201 0.41763440270769525 3.536329426243612
0.41545071452206794 0.04206083405285879 1.3088556992390945
-0.22720885635641186 -0.41836185429569467 4.817320108413696
0.48179098181193314 0.612832895660475 2.544817647171667
0.18696637650153614 0.3184654756665912 1.0413314779425609
-0.7717101856827948 0.687655658121348 3.5290319529623018
-0.4486080568705092 0.050430084412356385 4.0465561704303216e-16
-0.7494494458437742 0.586519044371387 4.102499460938088
-0.19017836662886853 0.6419647178133964 4.817320108413696
0.7384135663483875 0.46337705551500463 4.366853230228629
-0.21414057773170853 4.471506034445391e-17 4.797023045660168
-0.333983099634221 -0.24689143325523824 0.966933994032979
0.11010745866095768 0.4722557582266993 0.8547218638683974
0.2527113630789356 0.20031047645079528 3.8560009799877415
0.6499515819933621 0.17316159675980192 4.985887517255573
0.6003326259489576 0.7427860838436556 4.188163570917638
0.26742685265228644 -0.18632226935972399 1.0456400364637373
-0.13866261739742497 0.8394753917756002 0.2644772397255887
-0.20079660985484307 0.948081111037766 3.3355530853727137e-17
0.9321805617262064 0.030761723648864984 4.261535326823068
-0.1981877271768215 -0.191648835130865 1.0456400364637375
-0.24838160212095492 0.7230241023957453 4.775153836584401
0.6452864398927212 -0.1192659567733062 0.5784469585367777
-0.5629024670459438 -0.1825828672048846 5.094644630363289
0.3628009231173851 0.9702935893973406 3.6113337324825108
-0.7128050691373897 0.5803765171481361 4.220671655815259
-0.07989210081907132 -0.28147473470168155 5.185291531318103e-16
0.015863080032229682 0.001942593991459984 4.817320108413696
0.8609195538179886 -0.2033218909374473 9.395757525581622e-17
0.1193579559419268 0.3946929529284905 3.387288716079833
0.9475361190051363 0.3562057818479275 3.315680175675713
-0.10279350145027194 0.9904964103636459 3.385748952808992
-0.5265052537441693 0.2116213558026645 3.2158056326112696e-16
-0.5367595387802773 0.09569040555438181 1.7456260361362574
0.9903830817893868 0.07446255897444107 4.035188827775354
-0.24699698091109673 -0.3995986105825549 0.8791041110004243
0.8515253335928574 0.5239504197720335 3.2421174784841877
0.7041016868767753 -0.054225302942374244 4.817320108413695
0.13827539406612563 0.3234556598381502 1.0857003832221486
0.10717264031475177 -0.5794660917859673 5.0974618645259495
-0.4956993365818553 0.7576239660825148 4.263847711500089
0.057612801954332674 0.019671404431297296 4.817320108413697
-0.5877749559452732 -0.00463358247735296 4.817320108413696
0.7686938497874128 -0.01733096681222788 3.3165264198795716
0.2182661125689406 -0.060004230673701725 2.7509882099101657
0.7444452507285003 0.6184737096769715 4.03213797160412
0.7231354118979054 0.42810488637735705 2.6621997118117786
0.8839683331586701 0.18865118364927025 2.9696622668711554
-0.5340900909087682 0.7809452678320647 4.217905704795449
-0.9244075090688584 0.38022584950314775 1.1676669411234529e-17
-0.5687456225563158 0.4865501673450321 2.3489129075903534
0.9755834073619184 0.1498169205780155 3.1819791062599174
0.21921775444048136 0.5156504938252328 0.7331023731518544
-0.7828587528843132 0.6444293880575938 3.9164937796062826
-0.7223929225483681 -0.6810795865453227 0.03621925655428518
0.7399556768445827 -0.06646362133239134 1.9520776627646513e-16
0.5455609700838808 0.8075357856662766 3.9981499895296695
0.4451904569730736 0.2615645850963976 1.5567615098169378
-0.40167727683187654 0.5331724356836327 2.1627411023243415
0.37563957908475104 0.15929229555590485 4.817320108413696
-0.9135743767324846 0.07696601197671195 3.013727603993641
-0.930028037502424 0.10639125481491193 2.989269184042266
-0.8503518842067725 0.581112265734054 3.4695219403053956
0.8719976334578944 0.55445926242833 3.5308707193057307
-0.2135623859539766 0.5697763061628238 4.7919198870658875
-0.9805482048831986 -0.004004179035419614 0.056801940906889184
-0.6397273923208756 0.33902626394311197 2.3552750208224804
-0.5224652786804593 -0.07961746091935851 2.8020879171003936
-0.6216758240513944 0.3478877063227714 0.48803862123962594
0.05544356397878711 0.5504158583579947 1.7734903160351114
0.15418339135552198 0.3681766662777733 1.2473062007455291
-0.6169821680025214 0.3044340115030722 2.2333232596889236
-0.0420229038970954 0.3920734967072208 1.0011757997969588
0.9374349650651483 0.08705231162807164 3.10242025912779
-0.06749466285882305 -0.41796641373800786 5.238658925275219
-0.8504487909048363 0.20066857946876215 2.8681354605167693
0.15538073632951785 0.05265371200289569 3.8703593602417325
-0.10707816003604424 0.41211209127241605 5.237273328588056
0.9602225457209337 0.2540786718028907 3.3636153999246456
-1.0077377661470932 0.19923257094801364 3.4357066442048403
0.37935671427890094 -0.25732672035724 3.8290890214865634
0.4320321111623039 0.55123917329027 4.936707210002398
-0.8290276255558443 -0.10198203583764778 0.28992324776409256
-0.8022617176655017 0.14586444791599779 4.620896671611962
0.30197698335502143 0.3868919642067445 4.7919198870658875
0.34332673773599076 0.2394483255089861 3.0648215037459803
-0.8968039958001189 -0.04937899560798629 0.18818254022910622
0.08990025794732484 0.36535179548477237 3.570951831627368
0.3403648842250879 -0.30478434174395674 4.817320108413696
0.6441895556766479 0.1861323234217194 4.817320108413696
0.7510255165605819 0.5536730765304059 2.9802041539876867
0.16466511910900372 -0.1621789664184484 2.9848071536665715
-0.347178704488887 0.11167619636176544 1.1286302702878113
-0.5270146476717396 -0.626380412299235 0.3179407897493467
-0.11093719343756503 0.8523036714263756 2.728877624749333
0.44066144729605133 0.4230182573422498 1.9695482989215014
-0.02108382799583492 -0.729819602639463 0.46029568777525354
-0.49075577757994515 -0.7824988458141363 0.14703896027405022
-0.2520136051715671 0.41017141666501744 1.4377796197314998
-0.5046742467605809 0.5021144839689606 0.48942183762230723
-0.466461964623672 0.5662035951142355 2.3885398962305864
0.24048702853084997 0.28687801559948517 1.0714434773511763
-0.5102578810108709 -0.08616314947619266 2.809913919349072
0.646310162438581 0.724035485717286 4.131265409943056
-0.6310526447763033 0.7659488880440088 3.8917052831434744
0.9605442139207032 0.3097428783370906 3.673697174117436
0.6701553693845936 0.1663179473767632 4.791919887065887
-0.6954221010724024 0.31107998546180093 4.702956662826804
-0.8488730922836021 0.06752294372949677 2.7908619534665817
0.5059447404371651 -0.027587858413230255 2.9272292910214603
0.31875338226053085 0.5513060949793381 1.9683891945519192
-0.07526506148666923 -0.09011399054770865 3.2813671613025224
-0.694714694345063 0.5209254191335881 2.7590525318935955
0.6257508333239725 0.23092871312211463 4.817320108413696
-0.50291218893153 6.158894901045838e-17 1.5627925083183665
-0.03495232523745443 0.993063226419818 3.879597777676663
0.38383553133658627 0.8826074439831275 3.186557240923608
0.7068863177543573 0.6038791174332054 0.1379563593271864
-0.4675978626966298 0.06886671445328557 1.4077806276821259
0.3914728669789215 0.08495642571809087 0.9908301819442987
0.6892005234374416 0.6719101039083644 0.08433215137450689
-0.8119222087783193 0.5233633892709069 4.040050559280504
0.8224986135852764 0.577437256778469 3.475917110594398
0.17783260393153028 0.4647396326252078 1.5824724996808648
0.2115819692923562 -0.29690121569277667 2.4273296897705183
-0.6149696970824693 0.004174860087326843 1.9832652739881695
-0.690106517313514 0.19228196916380702 3.4737533357140187
-0.7300052519913108 0.6743978298162128 3.881869788221116
-0.561593140825312 0.5165525264746238 2.4886106538215342
-0.7227887554843435 0.2571595426951518 4.766877810719303
-0.02094604121458359 0.2057638202558731 3.650105309515155
-0.0916503497422658 0.727962693761729 0.45453543471483615
-0.640468451428332 0.6884344273689746 4.149239148053927
0.42736891195411214 0.7780524424752986 2.915566957059564
-0.42923874501566994 0.28649953147127505 1.5547829222560487
-0.6367093388366958 -0.0313594646610483 3.8441771373446185
0.40632773444455617 0.8396175433988011 3.069370480649427
0.02985041092720859 0.6789283389153066 0.5409081833407868
0.8143643335950828 0.3840959792135489 2.959056641124084
0.25031624099888355 0.4755700194324035 4.817320108413697
-1.0229637977331185 0.16131313515293652 3.615530363928082
0.6485902813924997 0.11332741235183545 2.559730304187924e-16
0.37250883257024187 0.6163680943201572 2.253126127777854
0.9571477823979585 0.11687474140381515 0.08202363044488714
0.9844554830496679 0.020050658662142208 4.07539701731571
-0.5091212777449132 0.30633522401521485 0.6784976565445472
0.8084656403496091 -0.5399717548798247 3.0616726697378836e-17
0.005969532061983458 0.766506716668377 4.687377981424775
0.11052740505958361 0.9708634328031771 3.1374047902752498
-0.3203464383619239 0.9037250609706791 0.09067661034615683
0.6139622075384892 0.07160090097968676 2.848870741590673e-16
-0.9031037921717904 -0.11688462543833208 7.488191670991151e-17
0.10012801108990393 -0.1764371360992302 5.829402104042211e-16
-0.8652925296984495 0.010051046254862767 4.468250882666502
0.6467713213867289 0.12125897573595074 3.1454991964968855
0.07907936911921383 -0.3168619065643531 4.817320108413696
-0.47401303389944893 0.6812633931485469 4.576752388341728
-0.24855236512140033 -0.376668510175187 4.04707409743568e-16
0.5742427540322727 0.533560972353964 2.4697010349064232
0.41261504860774245 0.4243708435032256 1.9045534573662235
0.22780177526150747 -0.17863939538050955 3.86005435933082
-0.8750926834229622 0.5119397579558707 3.9194038122227726
0.37869826776910753 -0.4851176394950464 2.1860732319693366
-0.809737134051635 -0.023778156464916152 3.5018184918087907
1.0083819895730857 0.04458153395745566 3.6686780868890008
-0.07923394526612215 0.7013088803422796 2.222811997345035e-16
0.21568913271787588 0.01992355589641866 1.9902116438385713
-0.45957009491500334 0.12459984501968675 3.7399637967573796
0.21770653493550335 -0.3876833984196759 0.9196634668958594
0.6080734888334554 0.5443161570167921 2.67010189619623
-0.9379159924956092 0.31347035168363324 3.9125448655343726
0.09326514558560134 0.30891990316042683 4.817320108413696
-0.1410360085235252 0.9840294404060377 3.368523949326137
0.4223388781449653 -0.4037566164383289 5.1031678046697255
0.45036359846796187 0.8774311149497658 3.178916860723805
-0.027939589753743166 0.7763673153704255 2.4456711488882545
-0.038737185091828295 0.6695796041647396 2.173131720568905
0.369061218719438 -0.9337115203817732 8.187980869249624e-18
0.16837027294493362 1.0215231120994803 3.6607790813383376
0.30125270838666446 0.3529610858717923 3.7407536270923556
-0.12771561085570243 -0.6986214479189641 4.91847172522408
0.8842482662282745 0.013847930023387623 2.8133479911182526
-1.0095122021121812 0.04684235852300204 3.305534397138924
-0.796939559706248 0.46653526922547817 2.945933400870073
0.4139449953440465 0.7016923028303534 4.621914413546228
-0.6710854952799148 0.2733279167737371 2.358155016489535
0.23965366631400778 0.31484495515811817 4.7919198870658875
-0.3703820136744047 0.6787134441616459 2.524455947717041
-0.5209766408200869 0.4080838793542625 2.143759641623481
0.335589175216445 -0.829298901743432 0.1943507293881973
0.8231429146309248 0.12802702677733155 2.6381664598401184
0.7022152603247406 0.4605748468420773 4.54680533706132
-0.41809241051921453 0.6204453720762308 4.825346318385723
-0.4958771155305779 0.1933554000304734 1.6106838286005107
0.990123275391639 0.2020799607762527 3.62070856029764
0.8305642716984195 0.5893168001900695 3.888556658556049
-0.3999468423166719 -0.4486761440264202 5.0844378843362055
0.19401288793734506 -0.02897891175792286 2.8689838367687153
0.14390067731136985 -0.5553510439155933 5.115201673316721
-0.9601961228887378 0.05993216364699697 3.1855120356884603
0.0778540636852552 0.3718551058685085 3.5010415383588214
0.8569501857094535 0.03247345080006707 0.2546152551648852
-0.7280557816945664 -0.11758398045602846 4.817320108413696
-0.23970017448482683 0.4150136262044271 0.8641934769252928
-0.44413022404734814 -0.16458622669130363 4.3232417468894315
0.1400346289906706 -0.972851413178627 0.05189923104766808
0.49397395170767133 0.0468746526387767 2.0809187824857607
0.26107780763764077 0.3932939326366274 1.4956928794458044
-0.7595226211600301 0.500896421293921 2.9908583794022405
0.27039890814268946 0.45593963972824025 1.604058979713744
-0.2826329195546087 0.9610423870848406 3.4377273757138163
-0.8511473327591718 0.2360953582620404 4.3319893772742315
-0.791857033025153 0.42044234184175805 2.8538666467444305
-0.32918603924258205 0.1965763945193695 1.103318253021693
-0.3199530835638017 0.18862171161239058 1.0623482281061583
-0.46128496166933 0.3555556399779868 1.8729023703718295
0.7457445683441939 0.1782392167287583 3.54194865160283
0.3694832567703609 -0.3111989828594671 5.197148154034612
0.4506175900846094 0.6813329192539577 2.5818236367155833
-0.5464314523705041 0.8121234701474489 0.059067826207881806
0.6557498874385812 0.7152482985866229 3.1127596053341025
-0.6921621418958236 0.5842540767792032 4.344773298445011
0.6857602446987883 0.008886638969502227 4.817320108413696
0.7933986856462277 0.4114117741407635 2.844315332242
0.24874128105904247 -0.7823948420883303 0.31265809327099375
-0.009074706091131939 -0.7325163222906683 0.45601608909196945
0.6693041982350358 0.5063022349121067 4.547037508636097
-0.41221660976298646 0.5350525280310217 4.817320108413697
0.9604614040767483 0.2182013630091291 3.9381902369361557
0.11865073062837418 0.6464781359619227 4.7919198870658875
0.3863453292865651 0.8414835442309515 3.04529093646567
-0.8691169998826005 0.26104979586451005 2.9817814863255294
-0.059729202971921996 0.9708500177139574 4.008678851548052
0.582614480853733 0.8480016927694516 3.7877736857094075
-0.8850745678826231 0.38428764279960603 4.047986197886557
0.14351658221408667 -0.6316549473919872 5.024801751530181
-0.4327670814490863 0.7668336082303994 2.891205314978529
-0.3145484228286364 -0.9562594220610074 0.014765534717926142
-0.37338774311515893 0.9207076575541353 3.8813010196950435
-0.17185969955477862 -0.11861353712693265 5.3336770690393
-0.46924190181638503 0.08557152172090625 0.8679583741703136
0.08413081152144933 0.7781664227078023 2.5571496531521065
0.6278365204186229 0.14167295729035762 4.817320108413696
0.9831230424565243 0.20375137635239765 3.462838306482735
-0.3254483170903807 0.8323266408256397 4.382272835034967
-0.7291621682967507 0.13001433911745958 2.41323232458905
0.40452799905686987 0.27972671006680994 1.4726505120045696
0.9420723363345185 0.35064895580928096 0.016229306299700725
-0.4116086159886089 0.685645693719469 2.524743276468092
0.40531345218558973 0.26959125843434467 3.094665586569599
-0.22782719283752367 -0.41042239962296445 0.8805345508373663
0.9990252891355424 0.20137421290412846 3.8853731954565345
0.19656928567977086 0.7356583474782759 4.784525451698563
0.38481879049132667 0.867718787759063 3.1308748215110898
0.10452144838771854 -0.3206437554476693 2.283218277650769
0.6439823801475217 0.47909530089562713 2.6250851842669167
0.5922027697761647 0.817282804414923 3.6862074023475015
-0.8072364763812998 0.5196871165979673 4.068883572431236
0.8410259656675007 0.5568900904335043 3.55527147329842
-0.690276804969696 0.3572455745805076 2.446607633560229
-0.17843097930481225 0.7377797137584406 4.791679541505022
0.0059829117427272135 -0.2963176925247418 1.0456400364637377
0.8910473580068177 0.021722459982181273 4.388278182307945
0.6983446563312874 -0.4462043583447587 1.3364136234976966e-16
-0.3706152316761635 0.3275746557314562 1.572264176670302
0.00515715820336292 -0.5041347498253202 0.8237150826037594
0.6708798468201755 0.4832633091608352 4.585034189696754
-0.801706548742888 0.35213689037464224 0.22479980679718975
0.10806513419408642 1.0302852543803485 3.600823361948375
0.5004332332182494 0.424181982495378 3.4317376302171216
-0.05852861983382035 0.4534728085948633 4.005858566159885e-16
0.9645615489625659 0.04145036043614206 3.094369532813962
0.29997997994303705 0.4874301520147617 1.7481814935946594
0.333443454787224 0.04100718842472383 1.0456400364637375
-0.42848193937507184 0.767005848975695 0.22126333762997646
-0.8985052882395492 0.5116192735137296 3.546328344592059
-0.4128885051101501 -0.44662355917568 0.6557804139065171
0.025640658961550093 0.5921205399119607 5.093796736358764
0.1522721354232101 0.47500378558441025 0.8322683124807178
-0.4288400888820682 0.44813774210654145 1.9113192727126256
0.3022242878126473 0.26663492240185643 4.817320108413696
0.4801455810681696 0.8312813272484567 4.171799223064179
-0.44705022026711233 0.0967975305248562 2.8237217345840753
-0.20714583303784223 0.9054779681409952 4.274441435529683
0.8882028432486626 0.4358962619231121 3.3332700330630507
0.7739266077090817 0.05931206130637839 3.564130885081328
0.6136692709714162 -0.7152697614310146 0.11677755449210725
0.11396829954822624 0.5188557940738915 1.6068735399350753
-0.15186726307956694 0.9840228987268738 3.383348008725897
-0.9107532099503455 0.4333457472388932 3.552508292242817
0.6457840484991606 0.5183973295753176 4.58269170188773
0.9797293720714345 0.23980613763105724 3.7028700420623117
-0.8267246620492021 0.04450804364882898 4.500289351638637
-0.4557300600765299 0.1387290990605864 1.4192749556114124
0.6526816566865625 0.3814954718459184 4.801041555175986
-0.3107180891192354 0.714386898339969 2.453118017957273
-0.6177795075444885 0.04569546072961463 2.8398399287198465e-16
-0.21169264487160808 -0.05285310555235159 5.331171946077324
0.7699282896028725 -0.11739359518333527 3.5263447383823996
-0.44226858804844993 0.1649162064447303 1.4959684250597216
-0.6910933162720663 0.1026651440087288 2.2697176422062633e-16
0.40915633594467155 0.43709357298061413 3.3511375623587463
0.8696314081480306 0.052481764313660674 2.858346781279219
0.20311728103008558 -0.5889296346309311 0.6321675795370525
0.15400177542983567 0.926597700791409 0.12324388394300595
-0.6050469717901296 -0.5363816312432435 0.33265125526145634
0.4287211650616042 0.8891882387381804 0.04580184084276007
-0.19704082278762944 -0.9876616330211279 0.013025856409244146
0.6835707075855644 0.16448335633743122 4.7919198870658875
-0.224902409166641 0.43498273656089986 4.7919198870658875
0.09712384719689571 0.1657343829000319 1.0456400364637375
0.24719092983628568 0.8630323966136217 4.36908137205564
0.9757580707545899 0.2858594284347075 3.3471779160987394
-0.6256543224965295 -0.7453118715570889 0.06892273477038627
0.3206315551499758 -0.19070587712212875 1.8584414720451568
0.07541297812487821 0.8501722679357292 4.421836012969448
-0.07205906511427758 -0.19812253325321377 3.491830033951391
-0.7206774931722536 0.03992312966332571 4.892318757684494
0.49769818702459634 0.32019073767072836 0.6823179120368634
0.1365803636127586 0.927725279245105 4.245712832686108
0.622573161123318 -0.031531640674157875 2.815086886684679e-16
-0.6851969419530569 -0.08685778373426092 4.955074645596989
0.9240484569407047 0.3237573337664691 3.270159057212493
-0.8169216547062758 0.295998204408679 2.760240027475545
-0.43145964563696837 0.8483780638481284 4.102928142242558
0.834289012929867 0.04409973340723617 2.736705755203606
-0.6130558523860301 0.5031711521432286 2.5910891720438367
-0.007106743538430244 0.6184794983241914 1.9955774172685223
0.10872592024983328 0.8936525587381685 0.1847939819307495
0.6615575448201862 0.09697824871813726 2.166818289044786
-0.273996813296678 0.748946248868984 4.674449727801716
0.08112944234652975 0.5832480525341953 1.8939835597731824
-0.5722746188683655 0.11537682629025588 1.8765569488358076
0.3838472248456548 0.43890620519000784 4.817320108413696
0.6727345704143406 0.6459306237478077 0.13260659398992583
0.7098971449379867 -0.4026593559539837 1.4294753172476648e-16
0.017452764850974446 0.9821429401680435 0.052473496646915516
-0.06977075394985385 0.36478141548030374 1.1525231337807624
-0.42850918110184183 0.7915246827706633 2.957581209235004
-0.8189000142333911 0.5887808756606393 3.5418562794024218
0.8171497096163133 0.6095111535052251 3.8779077522938343
-0.6244073064256981 0.2346467177901868 4.7919198870658875
-0.8021868426416097 0.6497954907861483 3.5042732592167782
-0.3510097145260735 0.009576505634312032 2.7685734152868386
0.8995351699599541 -0.29493266341142166 0.11048942297569145
0.30034360545793715 -0.8411035913874845 0.19688122413052014
-0.42576020747212556 -0.11178066694867263 2.641824614438795
-0.8601908787171055 0.11282613863017417 4.380270070611964
-0.20286552043240613 -0.5647615550746142 0.6690594204137263
0.6627293515301249 0.3150025816799478 3.4862631844323544
-0.830187296502855 0.12529512506963245 4.464815846447597
-0.1302848696722335 0.33859108708853225 4.817320108413696
0.49783611969454383 0.34243413802109934 4.7919198870658875
0.5327005632430871 0.44859717028429047 4.817320108413697
-0.4613357694766511 0.1028896359102479 1.497652776180138
0.12369791987671817 0.932497202266722 3.098653572744362
0.2553008893430498 -0.9305658630841546 3.6544303472659617e-17
-0.12543375374693416 0.24251354870455788 4.791919887065887
0.07421662524713703 -0.32063343239623154 2.111280189705591
0.8773348355479142 0.14780774215534553 2.8318601752746915
0.3729002911764357 0.8837784507749519 3.173071970894723
0.8518320006306391 0.01525757584673276 2.7028357188019925
0.19355553484994759 -0.011452051548547401 5.894758461913123e-16
-0.7022275134818192 0.00021447607707771 4.933258282693882
-0.1945304233995676 0.5662814062201438 4.791919887065888
0.19508868467602702 0.48926543455329147 5.160954553620346
0.40961802241068185 -0.8682984752088145 0.08899680064758454
-0.6551923974527158 0.22171192342050072 3.509475147383243
-0.13890410464003164 0.9578657283625049 4.141931693154143
0.030111283414306255 0.918396349542352 0.1547685871712522
0.15585371526783587 0.0636844182794217 1.0710400342941284
0.0026672620255021933 0.8465258488207893 2.77357156927541
0.35676005380515086 0.164659174941465 1.1357610369337
0.31787222364630363 0.21848437975700727 1.2002988546865254
0.7078084504847331 0.7059852005119044 3.2416068231234467
0.06210788538523611 0.6324736380261506 1.9626841761987732
-0.19888865232003333 -0.8881687921763206 0.17031003416017723
-0.3577394270075974 0.3045677222074604 1.4873215403512605
0.9676490929899528 0.0 3.1690438218765884
0.08012141242152716 0.04355385820411533 3.0725568337517357
0.41987097945289736 0.15343380535923598 4.817320108413695
-0.3644795178203511 0.3859800743907021 0.7805782928170956
0.8310876733311248 0.053052201596472476 4.4857026406495475
-0.07138322884900093 1.012544214289918 3.3342856150243803
-0.6894220695741703 0.3320864238066468 4.772768379283351
-0.34761402756514925 0.7125840459562856 4.609008491011003
0.021224030497806728 -0.5741883948593594 3.160976034219717e-16
0.2726495999216717 0.5618485868489217 4.817320108413696
-0.5151550005766408 0.02627238862583942 2.4821365513139333
0.44224718582155187 0.4736817867410751 2.0958942732386503
-0.8685056868649146 0.5629466365319679 3.6529408803529377
-0.7796274203032287 0.5196161470741966 4.249718286884824
0.738171671698048 0.3585584141596255 0.313815113540858
0.09036301022373971 0.6692659532956995 2.43769360177978e-16
-0.5003911816559272 0.3294690641128442 1.8386229053059011
0.2900316185619372 0.1681572836065584 1.0456400364637375
-0.1999925217089022 0.8019554670371793 2.705524561318074
-0.5540746450088079 -0.7991801276402065 3.11517339929093e-17
0.010142465127782224 0.7282972087407668 2.3705707841811408
-0.609851475648132 -0.3388074224805959 4.942212548405462
-0.3934134797678439 0.6922015368237711 4.596778741051438
0.5575564022289843 -0.15307698047068535 0.7044647331379689
0.8778916583715521 0.47185236558262056 3.8536946207408196
0.05505312841903494 0.9771007823312788 3.1439840718611207
0.3486839216219439 0.17873917763164832 4.472855628460175e-16
-0.656699939308095 0.11212303867740843 3.7696222119116323
0.5038352274470309 0.7128430194933784 4.4452468934384965
0.43447206789638726 0.6123893782112749 4.735081501737774
-0.5379777484828486 0.3781037977069689 0.5763523966032403
-0.19477143219292176 -0.04296452704791314 4.817320108413696
-0.27319536733766253 0.04693863692286166 5.311748824268503
0.42482328409125625 0.6994100656666065 4.610827603423145
0.7411846705124792 0.18577778423156457 2.493462448158739
-0.8549994076857038 0.4448726489129945 3.1929304694827456
-0.643131252736785 0.8115669517313946 3.6010196393037197
-0.5356924718009961 0.5608289156456354 4.66184501419554
-0.6538651561159292 0.318306067248356 2.3674473112420005
0.43206425559576367 0.22500373576666405 1.5472144684713491
0.3645536642767367 -0.17699480767957093 0.9834941921740803
-0.3672609720871934 0.6852629330289473 2.5387289778931232
-0.23071774968102057 0.6691323693167492 4.923539323846558
-0.9118769642825041 0.36836767406457527 2.323611506446692e-17
0.5002954066643249 0.5247474839184786 4.885258942946063
0.2990004574915018 -0.15665114386734155 5.286529662716833
-0.10767343740155266 0.9915291732232909 3.398087175240691
0.2795921821280286 -0.5149094520727768 0.6918122636827152
-0.7984846023009937 0.3168799933924291 4.487477769902572
0.5876444238924481 0.3082899122620736 2.058588624007199
0.44570613317354746 0.733457820813197 4.48901245159683
0.48835615546894173 -0.36056732576628453 5.077817575433755
0.24610685015303166 -0.21651918038074477 4.934815102049477e-16
-0.5013492539299726 0.38144867508394253 2.035371642750257
-0.4127239773643224 0.5960739813915001 4.884833774024052
